# .PCD v0.7 - Point Cloud Data file format
VERSION 0.7
FIELDS x y z rgba
SIZE 4 4 4 4
TYPE F F F U
COUNT 1 1 1 1
WIDTH 1079
HEIGHT 1
VIEWPOINT 0 0 0 1 0 0 0
POINTS 1079
DATA ascii
0.013454378 0.044751436 0.04635255 5070207
0.012870491 0.045898497 0.046378255 4904
0.01225543 0.047031224 0.046398208 4545395
0.011660814 0.048173279 0.046421938 2441058
0.01110512 0.049332857 0.046452776 4413054
0.010512829 0.050475746 0.046476908 5529467
0.0099314451 0.051623434 0.046503015 5792379
0.0096691251 0.052209914 0.046521254 3555932
0.0090720057 0.053350359 0.046544477 5267065
0.0085167885 0.054509312 0.04657533 1714764
0.0079774261 0.055675 0.046609052 4216704
0.0074366331 0.056839764 0.046642497 5400193
0.0068782568 0.057996541 0.046672694 136761
0.049385607 -0.018483728 0.044817433 4280429
0.048768997 -0.017356664 0.044836633 5594497
0.048209429 -0.016195804 0.044867098 4871792
0.047893167 -0.015636981 0.04487513 5463678
0.047221243 -0.014542401 0.04488343 4740974
0.046593249 -0.013421774 0.044900395 5528429
0.046029985 -0.012263387 0.044930123 1910339
0.045379519 -0.011155754 0.044942684 5267318
0.044729412 -0.010047704 0.04495535 2834523
0.044069588 -0.0089450479 0.044966117 5924997
0.043408632 -0.0078427494 0.044976696 3096670
0.042748868 -0.006739527 0.04498753 5859715
0.042099595 -0.0056300759 0.045000441 3491942
0.041759431 -0.0050840676 0.045003876 4808315
0.041053414 -0.0040062666 0.045005746 3163741
0.034538448 0.0048952997 0.044924378 3357795
0.033662498 0.0058870018 0.044894055 5266297
0.021621943 0.028702021 0.044697799 2770015
0.021069586 0.029866248 0.044729665 5136000
0.020437777 0.030991346 0.044746518 3951474
0.019866586 0.032146066 0.044774801 4740469
0.019549012 0.03270784 0.044782907 5332858
0.018933237 0.033840805 0.044802777 2372172
0.018333197 0.0349814 0.044825613 4871788
0.017728567 0.036119729 0.04484757 4018019
0.017131805 0.037261814 0.044871025 3621472
0.016583145 0.038426608 0.044903472 4939639
0.015991867 0.039571047 0.044927925 991032
0.015399754 0.040715039 0.044952229 5201531
0.014833748 0.041871101 0.044981368 3096159
0.014573634 0.042459726 0.04500021 5266299
0.01402396 0.04362306 0.045032389 2569551
0.013460815 0.044779867 0.045062028 5332860
0.012898564 0.045936882 0.0450918 2571872
0.012278259 0.047067225 0.045110777 4479089
0.011680126 0.04820767 0.045133866 2636115
0.011119783 0.049365133 0.045163959 5001842
0.010492265 0.050492167 0.045181602 2634828
0.0099362731 0.051651299 0.045212463 6055813
0.0096696615 0.052235872 0.045230001 5660544
0.0090999603 0.053388566 0.045258306 4870510
0.0085396171 0.054545224 0.045288332 3030105
0.0079963207 0.055709183 0.045321472 4741234
0.0074204206 0.056858569 0.045348585 5067888
0.006857574 0.058013469 0.045378067 660787
0.048774183 -0.017330736 0.043549001 5266037
0.048172176 -0.016194969 0.043571115 4608868
0.047853827 -0.015637308 0.043578699 5135479
0.047185719 -0.014540344 0.043587618 3426151
0.046607077 -0.01339072 0.043614388 2570842
0.046044469 -0.012231916 0.043644339 1323093
0.045401573 -0.011119872 0.043658324 4544881
0.044817984 -0.0099734366 0.04368408 3623265
0.044106066 -0.0089008808 0.043684408 5857402
0.043452621 -0.0077943206 0.043696344 2109264
0.042721033 -0.0067321062 0.043692857 4741242
0.042377949 -0.0061878264 0.043695621 2832987
0.041735649 -0.0050741732 0.043709852 5793159
0.04103303 -0.0039943755 0.043712199 2504533
0.034539223 0.0049195886 0.043632157 3226209
0.033793092 0.0059815347 0.043626554 5528707
0.021690488 0.028760731 0.043418325 1849170
0.02109617 0.029904217 0.043442272 4478840
0.020498872 0.031046152 0.043465652 4214389
0.019889176 0.032182008 0.043486662 5397883
0.01960516 0.032760084 0.043501139 5661053
0.018988192 0.033892393 0.043520764 2767192
0.018386364 0.035032064 0.043543279 5266546
0.017780721 0.036169827 0.04356505 5267578
0.017185032 0.037312329 0.043588713 4871026
0.016599774 0.038459718 0.043614335 6056830
0.016005039 0.039602518 0.043638185 1581887
0.015435755 0.040757239 0.043666817 5726083
0.014863849 0.041910529 0.043694951 3753576
0.014598429 0.042496651 0.043712877 5595011
0.014045 0.043658227 0.04374446 3359331
0.013479352 0.044813871 0.043773718 5792906
0.012886167 0.045956731 0.043797769 2177375
0.012291789 0.047098935 0.043821603 5004663
0.011693597 0.04823935 0.0438447 2769249
0.011132121 0.049396336 0.043874681 4805748
0.010533094 0.050536215 0.043897614 4082790
0.0099470019 0.051681846 0.043922968 4805494
0.0096790195 0.052265823 0.043940321 4278123
0.0091052055 0.053416699 0.04396794 5659764
0.0085430741 0.054572612 0.043997735 595245
0.0080245733 0.055747479 0.044035614 3822186
0.0074422359 0.056894004 0.044061594 3029073
0.0068755746 0.058047265 0.044090472 594483
0.0063202381 0.059205264 0.044121444 7303051
0.0057797432 0.060369372 0.044155128 1580337
0.005504787 0.060949326 0.044171095 132376
0.048734188 -0.017331719 0.042252161 5529461
0.048129559 -0.016197294 0.042273775 4082021
0.047809243 -0.015640736 0.042280942 5660291
0.047193289 -0.014512986 0.042300262 3227494
0.04656595 -0.013391793 0.042317294 4937848
0.046002746 -0.012233168 0.04234723 1124683
0.045416832 -0.011087984 0.042372592 5070199
0.044778049 -0.009973377 0.042387329 4016733
0.044130683 -0.0088635385 0.042400375 5792892
0.043413937 -0.0077932477 0.042399555 2833747
0.042687058 -0.0067282021 0.042396747 6122633
0.042345464 -0.0061829984 0.042399749 4279918
0.041701794 -0.0050700009 0.042413615 5528954
0.041002274 -0.0039882958 0.042416394 4279653
0.034440756 0.0048899949 0.042320266 3424861
0.033792973 0.0060053766 0.042333774 5331838
0.021128476 0.029932529 0.042802252 4609658
0.020534337 0.031075954 0.042826235 4608885
0.019924879 0.0322119 0.042847291 5200757
0.019637823 0.032788455 0.042861201 5069685
0.019020915 0.033920735 0.042880811 2176084
0.018416107 0.035058886 0.04290276 5267067
0.017818332 0.036212951 0.042279854 3687784
0.017221093 0.037354678 0.042303242 3687005
0.016663611 0.03851521 0.042334244 4938603
0.016033888 0.03964141 0.04235141 2238787
0.015458107 0.040793031 0.042378873 6054534
0.014880598 0.041943699 0.042406015 3488344
0.014588177 0.042517245 0.042418882 5330550
0.014030576 0.043676972 0.04244978 3029588
0.013460696 0.044830739 0.042478323 5462911
0.012892127 0.045984954 0.042507097 3632
0.01229614 0.047126472 0.042530663 4937581
0.01169771 0.048266828 0.042553745 3886437
0.011107147 0.049410671 0.042578302 5397632
0.010506749 0.050550044 0.042601004 4476268
0.009947896 0.051707983 0.042631567 5660542
0.0096784234 0.052291304 0.042648725 4805231
0.0091005564 0.053440422 0.042675644 5529461
0.0085671544 0.05460906 0.042710945 1977927
0.0080155134 0.055769354 0.042742774 4413296
0.0074286461 0.056913972 0.042767957 6384251
0.006857872 0.058065504 0.042796157 4673649
0.0062972903 0.059221298 0.042826258 6580876
0.0057518482 0.060383409 0.042859167 2040636
0.0054723024 0.060961425 0.042874336 66070
0.0049170852 0.062118918 0.042905383 282
0.048664212 -0.017350465 0.04094895 4676470
0.048059106 -0.016216099 0.040970482 4214127
0.047738791 -0.015659422 0.040977627 6449037
0.047134817 -0.01452437 0.040999405 4015715
0.046509266 -0.013401955 0.04101678 5594232
0.045946181 -0.012243092 0.041046843 861513
0.045305133 -0.011129647 0.041061074 4807026
0.044723749 -0.0099815726 0.041087426 3292497
0.044015348 -0.0089066625 0.041088037 5529217
0.04336679 -0.0077970028 0.041100793 2702159
0.042648613 -0.0067268014 0.041099519 3557472
0.042307377 -0.0061813593 0.041102484 2438225
0.041581392 -0.0051147938 0.04109972 5397370
0.040880144 -0.0040337443 0.041101977 2634315
0.034464777 0.0049269199 0.041032292 3488857
0.033723533 0.0059917569 0.041027121 5594232
0.021173537 0.029979497 0.041518517 5529471
0.020579636 0.031123042 0.041542582 4478061
0.020003796 0.032275259 0.041570149 4806513
0.019680798 0.032834321 0.041577123 5727101
0.019061387 0.033965349 0.041596241 4083303
0.018453538 0.03510198 0.041617587 4543862
0.017875493 0.036252886 0.0416447 3819116
0.01727587 0.037393332 0.041667618 3555677
0.016682208 0.038536608 0.041691691 4348534
0.016075432 0.039673656 0.041713253 2964309
0.01546514 0.040809005 0.041734122 5135229
0.014884055 0.041957974 0.041760594 3423580
0.014612257 0.042541176 0.041777432 5396600
0.014027536 0.043688238 0.041803181 2307154
0.013464987 0.044858217 0.041187197 5397119
0.01289469 0.046011627 0.041215733 1318204
0.012297153 0.047152489 0.041239016 4871529
0.011696577 0.048291892 0.041261703 3425364
0.011105061 0.049435377 0.041286141 4083054
0.010504127 0.050574541 0.041308761 2439516
0.0099439025 0.051731914 0.041339152 4871539
0.009673059 0.052314639 0.041356124 4475751
0.009093523 0.053463072 0.04138279 5004144
0.0085579157 0.054630786 0.04141783 5164
0.0080041885 0.055790246 0.041449398 4414323
0.0074437857 0.056946486 0.041479655 5332339
0.0068405867 0.058083922 0.041501775 399424
0.0063041449 0.059250236 0.041536547 6122894
0.0057243109 0.060397565 0.041563079 1647672
0.0054400563 0.060973585 0.041577406 330783
0.0048837066 0.062130749 0.041608356 25
0.0043122768 0.063281268 0.041636445 11712982
0.047949374 -0.016258091 0.039658718 2900069
0.047677934 -0.015672415 0.039675914 4476796
0.047030091 -0.014562935 0.039688677 3095644
0.046457171 -0.013409436 0.039716855 5726586
0.045842946 -0.012280196 0.039736547 2965850
0.045200408 -0.011167318 0.039750427 5004142
0.044619262 -0.010018796 0.039776906 4607838
0.043913007 -0.0089423358 0.039777771 6121608
0.043263078 -0.0078331232 0.039790198 4280421
0.042613864 -0.0067233443 0.039802775 5596029
0.042200267 -0.0062189698 0.039790921 3489886
0.041552067 -0.0051080585 0.039803781 4806264
0.040852845 -0.0040257275 0.039806254 4082023
0.033755183 0.0060327947 0.039740421 5396851
0.021237671 0.030035883 0.040238641 5332343
0.02064395 0.031179398 0.040262766 4084330
0.020031452 0.032313704 0.040283203 4675440
0.019706845 0.032871932 0.040289812 5136249
0.019085824 0.034002155 0.040308595 2439767
0.018507242 0.035152882 0.04033567 4675698
0.017894745 0.036287218 0.040356115 4150387
0.017293274 0.037426829 0.040378705 4015978
0.016696513 0.038568616 0.040402211 5134976
0.016086698 0.039704204 0.040423155 4083054
0.015470088 0.040836632 0.040442809 4872828
0.014884591 0.041983575 0.040468484 3031393
0.014609337 0.042565197 0.040484726 5463424
0.014021277 0.043710768 0.04050988 3622499
0.013446271 0.0448623 0.040537566 5002614
0.012874126 0.046014965 0.040565781 727350
0.0122751 0.047155201 0.040588804 4871529
0.011674106 0.048294485 0.040611438 3886176
0.011081517 0.049437553 0.040635683 4148845
0.010479808 0.050576448 0.040658168 2176595
0.010222316 0.051165342 0.040677741 3097695
0.0096457005 0.052315295 0.04070504 4278889
0.047872782 -0.016291946 0.038998112 3689583
0.047602654 -0.015705377 0.039015628 4740479
0.046960115 -0.014592558 0.039029472 3161697
0.046389759 -0.01343739 0.039058231 5266295
0.0090741515 0.053480238 0.040087454 5267328
0.0085363388 0.054647118 0.040122233 5531007
0.0079804659 0.055805683 0.040153496 4939125
0.007389605 0.056948692 0.040178016 5202044
0.0068133473 0.058098018 0.040205322 136511
0.0062452555 0.059250742 0.040234201 7173783
0.0056930184 0.060410082 0.040266082 1778236
0.0054075718 0.060985684 0.040280223 132900
0.045786023 -0.012290299 0.03843531 1784149
0.045145035 -0.011176288 0.038449481 4676980
0.044569969 -0.010024101 0.038477279 3030867
0.043929696 -0.0089095533 0.038491599 5792390
0.043287218 -0.0077960789 0.038505465 4476773
0.042577803 -0.0067206025 0.038505532 5727099
0.042234838 -0.0061759651 0.038508028 4411241
0.041515231 -0.0051055253 0.038506083 5661053
0.04074198 -0.0040647984 0.038493142 4279921
0.033715367 0.0060352087 0.038439229 4938099
0.02126193 0.030072689 0.038951047 5069685
0.020670176 0.031217158 0.038975589 4149609
0.02005583 0.03235054 0.038995638 3557986
0.019729435 0.032907903 0.039001875 4873077
0.019106805 0.034037381 0.0390203 3424609
0.018494308 0.035171747 0.039040729 5726840
0.017911077 0.03632015 0.039066955 4675179
0.017307878 0.037458956 0.039089218 4673908
0.016708255 0.038599402 0.039112188 5923462
0.016068518 0.039720923 0.039127268 3753574
0.015473187 0.040863365 0.039151065 5070460
0.015187383 0.041440159 0.039165303 4148843
0.014604032 0.042588085 0.039191447 5398136
0.014035821 0.043742925 0.039220557 3162461
0.01346004 0.044894099 0.039248154 5792894
0.01286155 0.046034724 0.039271303 3294037
0.012261331 0.047174454 0.039294109 5331060
0.011659861 0.048313618 0.039316669 3949158
0.011066318 0.049456328 0.039340772 5593981
0.010465682 0.05059579 0.039363489 1913665
0.010206461 0.051183939 0.039382845 3952994
0.0096282959 0.052333266 0.039409898 4278640
0.0090451241 0.053480238 0.039435968 5135740
0.0085050464 0.054646164 0.039470375 6583178
0.0079469085 0.055803865 0.039501287 5267318
0.0073539019 0.056946039 0.039525419 4742009
0.0067760944 0.05809477 0.039552473 728646
0.0062057376 0.0592466 0.039580949 6974860
0.0056207776 0.060391963 0.039606608 1646391
0.047871649 -0.016269743 0.037708201 5464192
0.04760319 -0.015682161 0.037726134 5726335
0.046962559 -0.01456821 0.037740305 3620967
0.046337843 -0.013444752 0.037757806 5727626
0.045776486 -0.012284309 0.03778854 2442339
0.045137882 -0.011168927 0.037803136 4875129
0.044566095 -0.010014772 0.037831686 3688803
0.043866217 -0.008934468 0.037833557 5923976
0.043289781 -0.0077829957 0.037861131 4542827
0.042649627 -0.0066680014 0.037875459 5135732
0.042240143 -0.0061613023 0.037864111 2898770
0.041519046 -0.005091697 0.037861742 6056066
0.040758431 -0.0040320754 0.037205935 2832472
0.033765554 0.0060862601 0.037156306 5399171
0.021339953 0.0301359 0.037674248 4675967
0.020711601 0.031262308 0.037691474 4149607
0.020395696 0.031824738 0.037699744 3360343
0.019761384 0.032948405 0.037715793 5135738
0.019135356 0.034076214 0.037733525 2438235
0.018519163 0.035208791 0.037753202 4476781
0.017932117 0.036355376 0.037778713 4017511
0.017326117 0.037492812 0.037800431 4345195
0.016720831 0.038630605 0.037822291 5069436
0.016076028 0.039749712 0.037836306 4410988
0.015474439 0.040889293 0.037858903 5267324
0.015182614 0.041463256 0.037871979 4149356
0.014593601 0.042608619 0.037897065 5398132
0.01401937 0.043760747 0.03792505 1255232
0.013441265 0.044910908 0.037952282 5595778
0.01284188 0.046051174 0.037975274 267561
0.012240648 0.047190577 0.037997924 5134711
0.011665106 0.048341602 0.038025618 4739440
0.011071384 0.049484253 0.038049705 6055562
0.01047194 0.050624251 0.038072675 3689308
0.010185122 0.051200062 0.038086705 4280930
0.0096071362 0.052349567 0.03811387 4542061
0.0090239644 0.053496629 0.038140006 5202295
0.0084832311 0.054662347 0.038174443 6122373
0.0079228878 0.055819154 0.038205013 5135732
0.007327795 0.056960523 0.038228773 4807802
0.0067483187 0.058108658 0.03825558 861252
0.006175518 0.059259504 0.038283676 6844036
0.0055882335 0.060403973 0.038308926 2238269
0.047926962 -0.016214162 0.03643015 3755117
0.047607183 -0.015656918 0.036437288 5266299
0.046968222 -0.014541924 0.036451742 3425120
0.046399295 -0.013385803 0.036480993 4806262
0.045783401 -0.012257248 0.036500305 993351
0.04514879 -0.011139482 0.036515713 4807539
0.044582069 -0.0099824071 0.036545381 3359838
0.043886483 -0.0088995993 0.036547959 5594749
0.043313026 -0.0077464581 0.036576226 2834014
0.042672396 -0.0066317618 0.036590382 5202297
0.042262971 -0.0061250031 0.036578804 2899027
0.041538537 -0.0050572753 0.036575496 6121604
0.040768921 -0.0040144622 0.0365628 3424609
0.033715785 0.0060833097 0.035852745 5333632
0.021372139 0.03017658 0.036388397 5070207
0.020773172 0.031317323 0.036411524 3294300
0.020418763 0.031860948 0.036411986 3754851
0.019781351 0.032983094 0.036427364 5004152
0.019184053 0.034124762 0.036450833 3886700
0.018563807 0.035255343 0.036469698 4872307
0.017943323 0.036385864 0.036488488 4478839
0.017334461 0.037521988 0.036509648 3556968
0.016754627 0.038671851 0.036536649 4413559
0.016076446 0.039775223 0.036543876 3753828
0.015469551 0.04091233 0.036565423 5201782
0.015173852 0.041484505 0.036577746 2505811
0.014579833 0.042627603 0.036601871 4741485
0.014000297 0.043777317 0.036628902 2308430
0.013420105 0.044926643 0.036655784 5660803
0.012819886 0.046066612 0.036678642 727348
0.012217939 0.047205746 0.036701158 5331830
0.0116418 0.048356622 0.036728814 4279142
0.011047184 0.049498945 0.03675276 5529987
0.010448754 0.05063954 0.036775976 2307405
0.010162413 0.051215589 0.036790133 3689054
0.0095843673 0.052365154 0.036817357 3293528
0.0090010166 0.053512216 0.036843508 4742774
0.0084306002 0.05466494 0.036872238 5859715
0.0078676939 0.055820733 0.036902413 4938099
0.007298708 0.056973696 0.036931366 4872057
0.0067171454 0.058121026 0.03695783 3952747
0.0061414242 0.05927074 0.036985442 6516615
0.048233211 -0.016756564 0.035130396 3294565
0.047610462 -0.015632093 0.035148233 5397883
0.047028184 -0.01448375 0.035174727 4016220
0.046403825 -0.013360173 0.035192221 5462646
0.045785964 -0.012232721 0.035211116 2109788
0.045153499 -0.011113673 0.035226896 5334146
0.044524729 -0.0099923611 0.035243496 2242640
0.043894172 -0.0088719726 0.035259709 6450058
0.043256342 -0.0077556372 0.035274401 1781324
0.042610705 -0.0066435933 0.03528744 4675951
0.042193413 -0.0061412454 0.035273984 1846082
0.041538119 -0.0050341487 0.035285056 5727616
0.040766478 -0.0039924085 0.035271585 3753060
0.033637285 0.0060528219 0.035189658 5136251
0.021435857 0.030232757 0.035109058 4872309
0.020797312 0.03135407 0.035124108 4805746
0.02047199 0.03191182 0.035130411 4280172
0.019832134 0.033032745 0.035145208 5333119
0.019201338 0.03415814 0.035161868 5135730
0.018578768 0.035287619 0.035180241 4609907
0.017955959 0.036417067 0.035198539 4215927
0.017345071 0.037552208 0.035219282 3819627
0.016732693 0.038686663 0.035239726 4742271
0.016106606 0.039814681 0.035257384 3360356
0.015493989 0.040949106 0.035277784 5137531
0.015192449 0.041518569 0.03528896 2966881
0.014571249 0.042649001 0.035307631 5267318
0.013987958 0.043797046 0.035333946 3228757
0.013404787 0.044945031 0.035360277 5660793
0.012801707 0.046083778 0.035382584 1845061
0.012198687 0.047222525 0.035404906 5529467
0.01162082 0.048372686 0.035432309 2571094
0.011024952 0.049514562 0.035456046 5201535
0.010425866 0.050654918 0.035479128 2898778
0.010111928 0.051218629 0.035487816 4280683
0.0095588565 0.052379519 0.035520107 4608618
0.0089754462 0.05352667 0.035546333 5202297
0.008403182 0.054678619 0.035574764 6385546
0.0078377724 0.055833459 0.035604551 5134964
0.0072663426 0.056985468 0.035633102 4740723
0.0066829324 0.058132082 0.035659268 3818849
0.0061047077 0.059280843 0.035686463 6778754
0.048225284 -0.016738385 0.033838883 1914191
0.047604263 -0.015612811 0.033857077 5924494
0.046966672 -0.014496922 0.03387168 4279390
0.046339571 -0.013374716 0.033888564 5265519
0.04577589 -0.012215525 0.033919126 1387857
0.045143366 -0.011096448 0.033934847 4742263
0.044512868 -0.0099760592 0.033951014 3688545
0.043815672 -0.0088938773 0.033952922 5331575
0.043174088 -0.007779479 0.03396675 3490405
0.042896152 -0.0071977377 0.033982873 4675451
0.042165875 -0.0061335862 0.033977762 4413298
0.04150635 -0.0050287545 0.033987835 5201785
0.04081887 -0.0039394498 0.033991963 4212579
0.03353411 0.006020993 0.033874273 5004663
0.032797575 0.0070897937 0.03386867 2374225
0.03212446 0.0081931651 0.033876479 5925003
0.022066534 0.029132515 0.03380011 990771
0.021459043 0.030269027 0.033821523 5331838
0.020814061 0.03138718 0.033835173 4017772
0.02048403 0.031942666 0.033840463 2504531
0.019839883 0.033061475 0.033854306 5661825
0.019205391 0.034185171 0.033870175 4937070
0.018610179 0.035327822 0.033894137 4412277
0.017982662 0.036454976 0.033911437 3821420
0.017399013 0.03760305 0.033937782 4608367
0.016780317 0.038734466 0.0339569 5858952
0.016147196 0.039859086 0.033973083 4412526
0.015475512 0.040965766 0.033981383 5203322
0.015169621 0.041533232 0.033991665 2506328
0.014569402 0.042673528 0.034014612 5267328
0.01396066 0.043809831 0.034035802 3821408
0.013375342 0.044956952 0.03406176 5596279
0.012771368 0.046095401 0.034083933 4017000
0.012192905 0.047245473 0.034111261 5003892
0.011589646 0.04838413 0.034133539 2374490
0.010994256 0.049526334 0.034157425 4740992
0.010370672 0.050655782 0.03417559 4674676
0.010083497 0.051231593 0.034189656 4937332
0.009503603 0.052380621 0.034216687 4213607
0.0089221001 0.053528756 0.034243345 4939125
0.0083765388 0.054692715 0.03427726 6515849
0.0078106523 0.055847436 0.034307048 5266035
0.0072118044 0.056987524 0.034330189 5135992
0.0066275001 0.05813393 0.034356222 3489886
0.048179388 -0.016742736 0.03253895 2964831
0.047556639 -0.015618026 0.032556728 5792908
0.046916366 -0.014503509 0.03257072 2767182
0.046343565 -0.013349384 0.032599404 5726588
0.045778155 -0.012191147 0.032629684 2768483
0.045143008 -0.01107356 0.032644778 5267837
0.044444919 -0.0099921525 0.032646254 4346212
0.043811202 -0.0088732839 0.032661736 5396853
0.043168128 -0.0077596307 0.032675177 4080231
0.042807877 -0.0072248578 0.032673538 5856900
0.042143703 -0.0061228275 0.032682493 4477300
0.041476786 -0.0050221086 0.032690853 6253708
0.04069519 -0.0039857328 0.032674566 4412015
0.040015221 -0.0028914511 0.032680213 4543595
0.033461928 0.0060059428 0.032564968 6318723
0.032726347 0.0070754886 0.032559335 4673130
0.032037258 0.0081704855 0.032563627 5003123
0.022645533 0.027994335 0.033126593 5661055
0.022069693 0.02915892 0.032508403 334894
0.021421731 0.030275613 0.032521367 5595778
0.020810664 0.031410456 0.032542035 4345711
0.020479739 0.031965524 0.032547072 3885671
0.019835055 0.033084184 0.032560751 5135481
0.019198477 0.034206867 0.032576129 3754339
0.018568993 0.035333127 0.032593012 4610426
0.017942369 0.036460847 0.032610476 3954035
0.017328382 0.037594646 0.032630578 4608885
0.016739726 0.038740456 0.032655925 5266297
0.016078532 0.039852023 0.032666266 2175819
0.015458524 0.040983111 0.032685131 5531262
0.015149236 0.041549027 0.032694712 4675181
0.014547169 0.042688549 0.032717317 6318987
0.0139364 0.043824047 0.03273809 796736
0.013374865 0.044982195 0.032768995 5793922
0.012770355 0.046120435 0.032791048 1582407
0.012166202 0.047258824 0.032813191 5398386
0.011564672 0.048398405 0.032835871 5135478
0.010971069 0.049541503 0.032860145 5792643
0.010350168 0.050672263 0.032878846 3424091
0.010063231 0.051248223 0.032893002 4674928
0.009483397 0.052397341 0.032920092 3557221
0.0089020729 0.053545684 0.03294687 5071489
0.0083276033 0.054696918 0.032975018 6319755
0.0077587366 0.055850476 0.033004299 5200502
0.007185936 0.057002157 0.033032775 5135229
0.0066013336 0.058148503 0.033058822 1847369
0.048492789 -0.017281026 0.031240419 4739955
0.048195958 -0.016710073 0.031252503 2241100
0.047571003 -0.015586644 0.031269774 5924494
0.046929002 -0.01447314 0.031283319 3556706
0.046356082 -0.013319105 0.031312048 4937324
0.045790672 -0.012160808 0.031342417 2111328
0.045154333 -0.011043876 0.031357184 4675698
0.044522107 -0.0099244118 0.031372905 3753810
0.043819129 -0.0088455081 0.031373158 7040136
0.043174684 -0.0077326298 0.031386226 4737631
0.042806983 -0.0072020888 0.031382844 6120567
0.042132914 -0.0061056316 0.03138952 1779266
0.041366518 -0.0050611198 0.031376109 5793922
0.040672421 -0.0039751232 0.031378508 1847628
0.039987445 -0.0028835535 0.031382933 5661304
0.039268374 -0.0018106401 0.031379983 5002863
0.038521945 -0.00075244904 0.031371161 4541809
0.037785411 0.00031194091 0.031364575 5002360
0.037014425 0.0013579428 0.031350583 6514824
0.036238253 0.0024019182 0.031335562 5989509
0.035744667 0.0028664172 0.031305298 5793157
0.034928799 0.0038902164 0.031281888 6187664
0.034173489 0.004947871 0.031271592 5859204
0.033428371 0.0060117543 0.03126359 6252677
0.032704651 0.0070877969 0.031260222 4212831
0.032042146 0.0081971586 0.031270072 5528958
0.031389296 0.0093119442 0.031282023 597060
0.023238301 0.026875168 0.031809598 4806763
0.022663236 0.028027892 0.031837836 5662086
0.022032619 0.029153049 0.031854391 6447
0.021424234 0.030289292 0.031875625 5332860
0.020809293 0.031422257 0.031895503 4477299
0.02044189 0.031959534 0.031892866 3688294
0.019796968 0.033078194 0.031906471 5267324
0.019193828 0.034217149 0.031928822 2768473
0.018529296 0.0353266 0.031938359 4939390
0.017903209 0.036454678 0.031955928 4283000
0.017299056 0.037605911 0.031331658 4543092
0.016679943 0.038737386 0.031350687 5265782
0.016049147 0.039863437 0.031367272 3621988
0.01542598 0.040993184 0.031385496 6318987
0.015138924 0.041569561 0.031399712 4542572
0.014508784 0.042696089 0.031416461 5726850
0.013941884 0.043852001 0.031446382 2439514
0.013352454 0.044997364 0.03147161 5794183
0.012746572 0.046135068 0.031493396 2701407
0.012141764 0.047273248 0.031515419 5135732
0.011565626 0.048424453 0.031543374 3227733
0.010946214 0.049555928 0.031562343 5463414
0.010351837 0.050698727 0.031586513 2043978
0.010040343 0.05126366 0.031595632 4346737
0.009458065 0.052411795 0.031622291 4081518
0.0088765621 0.053560168 0.031649098 5201793
0.0082992911 0.054710269 0.031676754 6253711
0.0077267885 0.055862308 0.031705379 5463165
0.0071501136 0.057012409 0.03173314 5266045
0.0065642595 0.058158338 0.031758979 3885412
0.049023867 -0.018437505 0.029912084 3162202
0.048474908 -0.017268807 0.029946268 5201531
0.048230827 -0.016666561 0.029970109 3887211
0.047606349 -0.015542865 0.029987469 5136000
0.046966553 -0.014428139 0.030001417 3360616
0.046337247 -0.013307065 0.030017689 4740972
0.045770764 -0.012149364 0.030047923 1783126
0.045134485 -0.011032283 0.030062675 4479601
0.044502437 -0.0099126399 0.030078381 2966362
0.043733537 -0.0088714659 0.030063868 5595260
0.043086052 -0.0077600777 0.030076236 4475490
0.042707026 -0.0072358549 0.03007023 5726840
0.042019308 -0.006146878 0.030073762 3096668
0.041325867 -0.0050607622 0.030076101 4808315
0.040629685 -0.003975749 0.03007786 2440284
0.039941311 -0.0028859675 0.030081391 5726838
0.039221108 -0.0018135011 0.030077994 3818589
0.038472772 -0.00075617433 0.030068487 4738670
0.037734866 0.00030761957 0.030061319 5265782
0.036963224 0.0013534427 0.030046865 6252681
0.036183894 0.0023958385 0.030030817 6056329
0.035685122 0.0028576255 0.029999033 5925256
0.034861505 0.0038773715 0.029973492 5924746
0.034113407 0.0049391687 0.029964492 5990536
0.033405364 0.006023258 0.029964268 6187917
0.03268975 0.007103771 0.029962435 3096147
0.032027781 0.0082135201 0.0299723 4872820
0.031346798 0.0093134046 0.029978067 2111069
0.03073889 0.01045236 0.029999658 5003374
0.03011477 0.011582792 0.030017763 4345446
0.029783666 0.012137979 0.030022725 3030103
0.02919507 0.013287157 0.03004849 5069949
0.028639436 0.014453501 0.030081376 5006470
0.028112233 0.015634328 0.030120313 4478323
0.027624846 0.016835392 0.030167788 5333630
0.027112544 0.018023014 0.030209839 5333622
0.026639938 0.019230574 0.030260369 5004667
0.026134253 0.020420581 0.030303746 6253190
0.02565825 0.021625191 0.030353412 5990788
0.025406837 0.022220492 0.030375347 5266295
0.024926603 0.023422033 0.030424029 3686503
0.024361968 0.024580628 0.030454636 5135229
0.023798525 0.025739551 0.030485481 5397623
0.023221791 0.026891708 0.03051348 4673378
0.022639632 0.028041005 0.030540302 5462142
0.022051156 0.029187053 0.030565768 1189190
0.02144146 0.030322641 0.030586734 4740720
0.020785272 0.03143546 0.030597836 4017006
0.020451963 0.031989425 0.030602291 2767968
0.019805849 0.033107519 0.030615568 4940417
0.019168377 0.034229934 0.030630693 3229799
0.01853621 0.035355031 0.03064695 4083565
0.017909229 0.036482692 0.030664295 4216948
0.017294407 0.037616283 0.030684233 3688041
0.01667273 0.038746595 0.030702725 5068918
0.016039431 0.039871514 0.030718774 3753576
0.015411854 0.040999234 0.030736029 6385297
0.015120506 0.041573614 0.030749381 4477810
0.014485657 0.042698026 0.030765131 5727364
0.01388967 0.043840557 0.030789018 2768479
0.013319612 0.04499495 0.030818313 5202046
0.012720466 0.046148598 0.030195057 2242390
0.012114406 0.047286332 0.030216843 4741485
0.011511207 0.048425317 0.030239195 1847371
0.01091367 0.049566865 0.030262753 5529467
0.010597587 0.050129831 0.030270919 4937070
0.010002136 0.051272243 0.030294895 5333111
0.0094159245 0.052418768 0.030320793 4476779
0.0088328123 0.053566545 0.030347347 5597051
0.0082508922 0.054714739 0.030374125 6319503
0.0076728463 0.055864483 0.030401662 5199739
0.0070901513 0.057012111 0.030428261 4740472
0.0064983368 0.058155596 0.030452937 3360610
0.049526215 -0.019611657 0.028576806 5793409
0.048981667 -0.018439859 0.028612152 4872820
0.048484743 -0.017240137 0.028658181 5530758
0.048189104 -0.016668409 0.028670594 3952753
0.047565758 -0.015543908 0.028688163 5728139
0.046875 -0.014458925 0.028690621 2769261
0.046299517 -0.013306111 0.028718963 4347503
0.045673251 -0.01218307 0.028735891 1519694
0.044975102 -0.011101574 0.028736785 4742512
0.044338822 -0.0099838674 0.028751537 2308169
0.043702185 -0.0088662803 0.02876623 6253194
0.043056667 -0.0077536106 0.028778955 2832724
0.042673349 -0.0072318017 0.028771847 5398650
0.041977346 -0.0061473846 0.028773382 4542572
0.041275442 -0.005065918 0.028773651 6318987
0.04057312 -0.0039841831 0.028773904 4083050
0.03988272 -0.0028953254 0.028776824 5267318
0.039161026 -0.0018235445 0.028772861 4016479
0.038309515 -0.00082337856 0.028740272 4806514
0.037674785 0.00029802322 0.028755665 4741742
0.036901176 0.0013429224 0.028740436 6582673
0.036118209 0.0023835599 0.028723255 5925005
0.035614908 0.0028429627 0.02869007 5925256
0.034784198 0.0038590729 0.028662533 5990536
0.034043193 0.004924953 0.028654829 6056842
0.033347845 0.006016165 0.028657198 6187664
0.032610416 0.0070851147 0.028650373 3359067
0.031948268 0.0081950128 0.028660119 5596800
0.031294405 0.0093095601 0.028671682 3163228
0.030686259 0.010448605 0.028693259 5135214
0.03002739 0.011560827 0.028703764 4806767
0.029726088 0.01213184 0.028715163 4674928
0.029137731 0.013281375 0.028741062 5463678
0.028585315 0.014449537 0.028774768 4874106
0.028030455 0.015616149 0.028807893 2636887
0.027568877 0.016830802 0.028861254 5005183
0.02712363 0.018053174 0.028918073 6582406
0.026656032 0.019263297 0.028969958 5135740
0.026158571 0.020457506 0.029015347 6187915
0.025691688 0.021666765 0.029067248 6713996
0.025441766 0.022262782 0.029089645 5792128
0.024957061 0.023462057 0.029137611 3226716
0.024386227 0.024617493 0.029166982 4148847
0.023815691 0.02577287 0.029196382 4872307
0.023276925 0.026943922 0.029232606 4543855
0.022685051 0.028088301 0.029257387 6514832
0.022050321 0.029211521 0.029272974 2504018
0.021401525 0.030327916 0.029285565 4872306
0.021082461 0.030888796 0.029293001 5267318
0.020446181 0.032011569 0.029308289 6386056
0.019802153 0.033130735 0.029321954 5004663
0.019166887 0.034254283 0.029337496 3031393
0.01853472 0.03537941 0.029353693 4608365
0.017939627 0.036522388 0.029377803 4939650
0.017293096 0.03764084 0.029390976 3293544
0.016671479 0.038771272 0.029409468 5138310
0.016038358 0.039896309 0.029425517 2768219
0.015713751 0.040455073 0.02943182 3952496
0.015090048 0.0415847 0.02944988 3032680
0.014476061 0.042718947 0.029469997 4872827
0.013874829 0.043859094 0.02949281 1979216
0.013275504 0.045000106 0.029516026 6320263
0.012689769 0.046147317 0.029542118 5334398
0.012082934 0.047284752 0.02956374 5267829
0.011478484 0.04842329 0.029585853 3623780
0.010877907 0.049563527 0.029608786 5332857
0.010562539 0.050126851 0.029617086 4477032
0.0099608302 0.051266581 0.029639781 4674409
0.0093702078 0.052411228 0.0296648 3227735
0.0087853074 0.05355835 0.029690996 5137268
0.049470603 -0.019633561 0.027918831 5530496
0.048963666 -0.018439174 0.027962804 4084331
0.048426151 -0.017263472 0.027999789 5201792
0.048132539 -0.016690433 0.028012648 3558250
0.047514141 -0.015562892 0.028031349 6122637
0.046879888 -0.01444456 0.028046459 2833765
0.046253562 -0.013321489 0.028063372 3755627
0.045628667 -0.012197465 0.028080642 2243930
0.0082063079 0.054720879 0.029071987 6319753
0.0076201558 0.055867225 0.02909793 5200506
0.0070288777 0.057011217 0.029122785 4806783
0.0064304471 0.05815205 0.029146135 1981785
0.044944108 -0.011096418 0.027439103 5136752
0.044309318 -0.0099777579 0.027454138 5005933
0.043673992 -0.0088592768 0.027469084 5135478
0.042967021 -0.0077816546 0.027467906 3161952
0.04264462 -0.0072249174 0.027474329 5530500
0.041941106 -0.0061446726 0.027474016 3818338
0.041231155 -0.0050675571 0.027472317 5857923
0.040525377 -0.0039876401 0.027471587 3688554
0.039833844 -0.0028992295 0.02747409 5136767
0.039111793 -0.0018274784 0.027469829 4347502
0.038256586 -0.00082919002 0.027435914 3821418
0.037629664 0.00029668212 0.027453005 4151404
0.036857367 0.0013425052 0.027437732 6056581
0.035981774 0.002332449 0.027399585 5925256
0.035568893 0.002841562 0.027386099 5990790
0.034734964 0.0038560927 0.027357399 5924997
0.033993483 0.0049219131 0.027349323 6253708
0.033261418 0.005993396 0.027343377 6252427
0.03256309 0.0070836544 0.027344987 3095628
0.027573407 0.016857564 0.027567655 4874108
0.027134657 0.018083334 0.027626261 6319238
0.02667141 0.019295692 0.027679399 5070199
0.021378219 0.030341387 0.027987748 5595252
0.021057129 0.030901313 0.027994737 5792894
0.020420671 0.032024115 0.028009936 6056580
0.019779503 0.033144772 0.028024152 6320523
0.019147277 0.034269869 0.02804029 5859463
0.018516064 0.035395563 0.028056666 4409956
0.017890155 0.036523908 0.028074205 5265532
0.017276108 0.037657976 0.028094277 3161697
0.016655385 0.038788885 0.028112933 5138309
0.016023397 0.039914548 0.02812919 5926016
0.015698195 0.040473104 0.028135329 6188679
0.015072107 0.041601688 0.028152853 3162453
0.014455676 0.042734861 0.028172463 5200244
0.013851523 0.043873757 0.028194666 3883365
0.01324898 0.045013368 0.028217226 6384000
0.012637794 0.046148986 0.028237954 6517383
0.012031913 0.047287047 0.028259799 5004405
0.011427879 0.048425913 0.028282031 3689054
0.010826945 0.04956618 0.02830492 5925246
0.010532081 0.050138831 0.028317556 6188418
0.0099256635 0.051276535 0.028339282 5859455
0.0093275905 0.052417994 0.028362766 2833234
0.0087383986 0.053563327 0.028388128 4743551
0.0081437826 0.054706186 0.028412342 6385546
0.0075486898 0.055848777 0.028436437 5135481
0.0069479346 0.056988776 0.028459325 4807553
0.0063416958 0.05812642 0.028481081 2771301
0.050534248 -0.021971136 0.026550815 6187399
0.049988806 -0.020798981 0.026586264 3294045
0.049463212 -0.019615263 0.026626229 5005183
0.048926234 -0.018438697 0.026663572 3228519
0.048389077 -0.017262608 0.02670081 5003895
0.048097253 -0.016688466 0.026714116 2900570
0.047481477 -0.015559226 0.026733384 5661833
0.046801746 -0.014467478 0.026738122 3360620
0.046227813 -0.013313532 0.026766926 5136770
0.045604348 -0.012188554 0.02678448 5860741
0.044909835 -0.011104703 0.026785925 5005682
0.044274509 -0.0099862516 0.026800826 6256002
0.04363656 -0.0088691711 0.026815146 5596283
0.042994201 -0.0077544749 0.026828483 2702678
0.042604268 -0.0072363019 0.026819631 4808567
0.041896462 -0.0061583519 0.026818261 3885412
0.0411762 -0.0050869584 0.026814133 5595264
0.040469766 -0.0040072501 0.026813164 4279920
0.03978622 -0.002902478 0.026171342 4741234
0.039065957 -0.0018295348 0.026167259 3492707
0.038212299 -0.00083020329 0.02613318 4213607
0.03748399 0.00023967028 0.026127428 4213860
0.036724806 0.0012931526 0.026114807 6187652
0.03595525 0.0023416579 0.026099935 6056580
0.035473049 0.0028128922 0.026070669 6056580
0.034667611 0.0038432479 0.026047915 6056581
0.033984363 0.0049408674 0.026052609 5925508
0.027145803 0.018113494 0.026334405 5991301
0.02667743 0.01932323 0.026386738 4807286
0.020384789 0.032031596 0.026709139 6779021
0.019747734 0.033154368 0.026724175 5991301
0.019119442 0.034281492 0.026741132 6123148
0.018490136 0.035408229 0.026757896 4016998
0.017866075 0.036537558 0.026775822 4148586
0.017253637 0.03767246 0.026796237 3228773
0.016605735 0.038790613 0.026808977 5072265
0.016004384 0.03993085 0.026831821 6254211
0.015679538 0.040489614 0.026838019 6779789
0.015053332 0.041618258 0.026855499 3227743
0.014436483 0.042751342 0.026875004 5397368
0.013829887 0.043889165 0.0268967 2831441
0.013224602 0.045027614 0.026918694 6778504
0.012613714 0.046163499 0.026939496 6121855
0.01200968 0.047302485 0.026961759 5004146
0.011406958 0.048442066 0.026984304 3161948
0.010805488 0.049582154 0.027007103 6056583
0.010508358 0.050153822 0.027019262 6056581
0.0099004507 0.051290989 0.02704069 6713994
0.0092989206 0.052430958 0.027063474 2240586
0.0087069869 0.053575218 0.027088299 4939648
0.0081062317 0.054715455 0.027111247 6583438
0.007504344 0.055855185 0.027133927 4609396
0.006896317 0.056992173 0.027155325 4872828
0.006284833 0.058127671 0.027175963 4018799
0.049960017 -0.020793587 0.025288418 5201523
0.049427748 -0.019613713 0.025327042 5202560
0.048885703 -0.018440038 0.025363371 3754362
0.048345923 -0.017265379 0.025400177 4542322
0.048053265 -0.016691655 0.025413305 2242640
0.047439516 -0.015561044 0.025433064 5530758
0.046815395 -0.014436483 0.025450423 4214640
0.04619205 -0.013311416 0.025467977 4674938
0.045624256 -0.012153924 0.025498256 2770524
0.044931352 -0.011069089 0.02549991 4940152
0.044297636 -0.0099497437 0.025515094 6188931
0.043787301 -0.0087593496 0.025558516 6581895
0.043228686 -0.0075970888 0.025590837 3360610
0.042865992 -0.0070636272 0.025587991 5005694
0.04219079 -0.005967766 0.025593758 3557989
0.041215777 -0.005041182 0.025531352 5991047
0.040514171 -0.0039587915 0.025531292 4214379
0.03971833 -0.0029287934 0.025509864 4872309
0.038999915 -0.0018546283 0.025506109 4148837
0.03815037 -0.00085285306 0.025472701 4805484
0.037427127 0.00022006035 0.025467992 4674158
0.036675215 0.001277715 0.025456876 6121859
0.03621757 0.0017618537 0.0254329 5925508
0.035438955 0.0028061271 0.025415882 5990787
0.034641743 0.0038410723 0.025394782 6318725
0.03397727 0.0049609244 0.024756223 6056066
0.02715683 0.018143624 0.025042534 5991560
0.02668345 0.019350827 0.025094032 4938099
0.019704223 0.033158302 0.025421411 6318985
0.019078076 0.034286618 0.02543883 5859210
0.018451035 0.035414577 0.025456056 5201020
0.017829299 0.036545128 0.025474459 6122122
0.01721859 0.037681013 0.025495276 4084333
0.016571343 0.038799584 0.025508106 5269385
0.015975416 0.039942533 0.025532156 5794179
0.015625775 0.040489703 0.025532901 6057355
0.015001953 0.041619629 0.025550887 3755892
0.014386535 0.042753488 0.025570706 6187918
0.013801157 0.043901324 0.025597021 1846088
0.013193846 0.045038968 0.025618613 6451598
0.01258415 0.04617548 0.025639653 6122884
0.01198113 0.047315061 0.025662169 5068656
0.011381626 0.048456162 0.02568543 2437198
0.010782719 0.049597532 0.025708809 6055815
0.010487974 0.050170332 0.02572152 6385548
0.0098779798 0.051306635 0.025742501 6253960
0.0092739463 0.05244559 0.025764763 3359842
0.0086803436 0.053589195 0.025789276 5729164
0.0080763698 0.054728121 0.025811568 6122376
0.0074710846 0.05586648 0.025833547 5201022
0.0068597198 0.057002127 0.02585423 5992079
0.0062444806 0.058136106 0.025874093 6320527
0.049960077 -0.020770848 0.023997083 6647942
0.049399734 -0.019607723 0.024029329 5793670
0.048891127 -0.018414021 0.024073601 4280182
0.048613787 -0.017831087 0.02409035 5923465
0.048016071 -0.01669082 0.024113819 3951975
0.047403991 -0.015559077 0.024133965 5530245
0.046784163 -0.014431864 0.024152294 3556446
0.046162128 -0.013305873 0.024170145 5004663
0.045541108 -0.012179226 0.024188206 3822186
0.044902086 -0.01106295 0.024202138 4873079
0.0443241 -0.0099112988 0.024230152 6188426
0.043749988 -0.0087575912 0.024259076 6056066
0.043490529 -0.0081649721 0.024279878 4740723
0.042821169 -0.007065922 0.024286836 5464456
0.036155581 0.0017515421 0.024124801 5991562
0.035381556 0.0027984977 0.024108499 5925765
0.034587204 0.0038352013 0.024087653 6056581
0.033865631 0.0049123168 0.024083436 5990787
0.026653111 0.019359738 0.023793072 4938613
0.019597411 0.03313154 0.024104357 6122374
0.018982351 0.034265488 0.024124205 6253710
0.018365383 0.035398573 0.024143666 4016748
0.017752647 0.036533654 0.024164051 5004152
0.01714772 0.03767252 0.024186149 3097438
0.016503155 0.03879258 0.02419953 5269634
0.015887022 0.039926171 0.02421917 6123148
0.015572369 0.040489912 0.02422756 6451862
0.014954686 0.041622877 0.024246871 1651027
0.014344573 0.042759389 0.024267852 4872576
0.013764143 0.043909639 0.02429536 2437976
0.013158798 0.045048296 0.024317369 6056844
0.012550712 0.046185672 0.024338782 6780817
0.01194936 0.047326118 0.024361685 4279140
0.011351943 0.048468322 0.024385437 4607086
0.010755777 0.049611032 0.024409458 5858434
0.010463536 0.050184995 0.02442272 6253960
0.0098531246 0.051321238 0.024443626 6254219
0.0092466474 0.05245921 0.024465382 3359842
0.0086512566 0.053602099 0.024489567 5268605
0.0080442429 0.054739803 0.024511173 6122124
0.0074355006 0.055876732 0.024532452 4280433
0.0068207979 0.057011038 0.02455242 6189455
0.0062021017 0.058143646 0.024571523 6254985
0.0055793524 0.059274554 0.024589762 6121855
0.049372137 -0.019601494 0.022731513 5859463
0.048819482 -0.018433899 0.022765666 3820139
0.048576117 -0.01783064 0.022790462 5397378
0.047974885 -0.016692311 0.022813156 3425882
0.047364175 -0.015559614 0.022833616 5332866
0.046747983 -0.014430135 0.022852793 5462646
0.0461272 -0.01330328 0.022870913 5398651
0.045507252 -0.012175858 0.022889227 4413555
0.044867516 -0.01105985 0.022902921 5004667
0.044285297 -0.0099105239 0.022930056 6254473
0.043706775 -0.0087592006 0.022958025 5398650
0.043442309 -0.0081693828 0.022977754 4345963
0.0427683 -0.0070728064 0.022983521 4741244
0.03524214 0.0027460158 0.022781923 5991047
0.034541845 0.0038343668 0.022782326 5991301
0.033825576 0.0049144626 0.022779107 6253962
0.018916368 0.034258753 0.022815779 6714259
0.018266737 0.03537631 0.022827938 3029600
0.017663538 0.036516249 0.022850454 5200504
0.017065048 0.037658393 0.022874057 3819621
0.016459465 0.03879714 0.022896051 5530496
0.015847266 0.039932758 0.022916585 6188428
0.015536427 0.040498346 0.022925779 6319503
0.014898658 0.041622043 0.022940636 2834274
0.014318287 0.042772561 0.022968218 5924494
0.013717413 0.043913454 0.022991255 4279920
0.01311475 0.045053482 0.02301392 5662593
0.012510359 0.046192735 0.023036167 6452881
0.011911154 0.047334284 0.023059562 4280680
0.011316061 0.048477679 0.023083866 6318470
0.010724068 0.049622387 0.02310884 6384263
0.010435522 0.050198078 0.023122966 6318983
0.0098249912 0.051334351 0.023143843 6583186
0.0092179179 0.052472144 0.023165479 1452874
0.0086206794 0.053614348 0.023189291 5204356
0.0080106258 0.05475083 0.023210272 6515348
0.007398665 0.055886447 0.023230851 5134713
0.0067809224 0.057019562 0.023250133 5662597
0.0061589479 0.058150887 0.023268536 6452362
0.0055329204 0.059280515 0.023286045 5596281
0.049331427 -0.019603044 0.021430403 5597572
0.048776448 -0.01843676 0.021464109 2703705
0.048530757 -0.017834783 0.021488503 5004152
0.047930956 -0.01669544 0.02151157 3031124
0.047322214 -0.015561432 0.021532491 4740733
0.046710193 -0.014429331 0.021552667 3620961
0.046091557 -0.013301075 0.021571279 4806773
0.045471787 -0.012173444 0.021589622 4018799
0.044830322 -0.011058271 0.021602869 5004667
0.044245839 -0.0099101365 0.021629527 6648199
0.043601871 -0.0087962151 0.021642193 6188420
0.043325663 -0.0082129836 0.0216593 3622240
0.042719424 -0.0070773959 0.021680832 5596038
0.035159767 0.0027247369 0.021467909 6253190
0.034471631 0.0038199723 0.021470964 6187397
0.033754408 0.0048997998 0.021467313 6253708
0.018791258 0.034223467 0.021493629 6056331
0.018152714 0.035346717 0.021508232 5200252
0.017557204 0.036490619 0.02153255 5528954
0.016965806 0.037636429 0.021557793 2306641
0.016367078 0.038778692 0.021581367 5399423
0.015762329 0.039918065 0.021603584 6385805
0.015459955 0.040487736 0.021614701 6451087
0.014831126 0.041615844 0.021631509 3557219
0.014257312 0.042769611 0.021660656 5135481
0.013662219 0.043913364 0.021685019 4016731
0.013064504 0.045055866 0.021708801 6385799
0.012462854 0.046196491 0.021731704 6517652
0.011865854 0.047339201 0.021755636 4544367
0.011273503 0.048483968 0.02178058 6714772
0.010685802 0.049630761 0.021806568 6122376
0.01039958 0.050207585 0.021821246 6188167
0.0097908974 0.051344782 0.021842539 6188167
0.0091850162 0.05248329 0.021864474 2702678
0.0085893869 0.053626299 0.021888673 4613244
0.007976234 0.054761499 0.021908969 6386066
0.0073610544 0.055895865 0.021928862 4083565
0.0067402124 0.057027727 0.021947458 6189715
0.0061150789 0.058157831 0.021965146 6387596
0.0054885745 0.059287339 0.021982521 5793921
0.049300134 -0.01959902 0.02013126 6186886
0.048744321 -0.018433064 0.020164907 3293788
0.04849565 -0.017832786 0.020188719 5858685
0.047894776 -0.01669398 0.020211563 3490137
0.047287762 -0.015558779 0.020232931 6318472
0.046677709 -0.014425427 0.020253554 5068136
0.046059072 -0.013297021 0.020272166 4806767
0.045491099 -0.012139112 0.020302832 3296608
0.044795394 -0.01105538 0.0203031 4939642
0.044208765 -0.0099083185 0.020329326 6517642
0.043624938 -0.0087597668 0.020356193 5004406
0.043354452 -0.0081732273 0.0203747 3359588
0.042672336 -0.0070809722 0.020378292 5530760
0.035194099 0.0027673542 0.020180777 6056583
0.034416795 0.0038139522 0.020162806 6121095
0.033703446 0.0048960745 0.020159855 6383749
0.018585205 0.034136623 0.020799786 6319504
0.018000484 0.035286188 0.020826608 4871539
0.017378807 0.036417961 0.020845056 5266295
0.016794562 0.037567616 0.020871967 2767452
0.016213655 0.038731396 0.020252377 5926537
0.015647948 0.039889544 0.02028349 6122373
0.01535809 0.040465236 0.020297453 6648203
0.014743209 0.041600108 0.02031742 2308181
0.014175713 0.042757064 0.020348087 5069945
0.013587654 0.043904334 0.020374104 4148317
0.012994707 0.04504922 0.020399019 6582924
0.012397945 0.046192288 0.02042304 5991047
0.011806726 0.04733783 0.020448327 4083042
0.011219501 0.0484851 0.020474464 6188166
0.010635793 0.049633861 0.02050142 6122376
0.010354161 0.050212801 0.02051717 6122376
0.0097495317 0.051351994 0.020539403 6517131
0.0091449618 0.052491218 0.02056165 2110292
0.0085509419 0.053635061 0.020586237 5534358
0.0079365969 0.054769874 0.020606294 6517902
0.0073205233 0.055903971 0.020625949 4742522
0.0066990256 0.057035685 0.020644411 5729164
0.0060708523 0.058164567 0.020661414 6517902
0.005751431 0.058726728 0.020668715 6648720
0.049297929 -0.019577563 0.018838927 5661053
0.04873997 -0.018412828 0.018872187 4345195
0.048489332 -0.017813712 0.018895671 5595000
0.047886252 -0.016676158 0.018917963 2899287
0.047277868 -0.015541673 0.018939033 5990020
0.046721756 -0.014376581 0.01897265 3885922
0.046104312 -0.013247579 0.0189915 5201533
0.04548353 -0.012120426 0.01900956 3361121
0.044839323 -0.011006832 0.019022003 4742009
0.044193923 -0.0098936856 0.019034192 6451852
0.043605864 -0.0087474585 0.01906012 5530496
0.0432567 -0.0082060099 0.019059882 3359070
0.04256022 -0.0071216524 0.019059911 5330807
0.03513658 0.0027596951 0.018872008 6056580
0.034363687 0.0038089156 0.018854737 6122122
0.033653677 0.0048930049 0.018852368 6122376
0.0184533 0.034098119 0.019474879 6647439
0.01787436 0.035250783 0.019503132 3555679
0.017261147 0.036386967 0.019523516 4609645
0.016681492 0.037539095 0.01955156 3885412
0.016095459 0.038688064 0.019578159 5793670
0.015539348 0.03985104 0.019611523 6582408
0.015258849 0.040431291 0.019627646 6779276
0.014653623 0.041570932 0.019649833 2306900
0.014091611 0.042730689 0.019681826 5792894
0.013509452 0.04388085 0.019709229 2307144
0.012921631 0.045028299 0.019735321 6648717
0.012328684 0.046173304 0.019760251 5859715
0.049261689 -0.019587874 0.0181842 5596029
0.011750758 0.04733789 0.019141391 4938353
0.011167884 0.048487335 0.019168615 6122884
0.010890305 0.049068242 0.019185334 6188680
0.010306895 0.050217241 0.01921241 6253708
0.009703815 0.051357269 0.019235 6517902
0.0091004968 0.052497178 0.01925756 4018296
0.0085077882 0.053641766 0.019282505 5204113
0.0078921914 0.054776132 0.019302279 6124175
0.0072733164 0.055909127 0.019321322 3887213
0.0066513419 0.057040811 0.019339666 5925767
0.0060251951 0.058170736 0.019357085 6187915
0.0057083964 0.058734089 0.019364938 6910357
0.048701644 -0.018412858 0.017571092 5133682
0.048488438 -0.01779142 0.017603785 6646918
0.04788506 -0.016653985 0.017626047 4083561
