# .PCD v0.7 - Point Cloud Data file format
VERSION 0.7
FIELDS x y z rgba
SIZE 4 4 4 4
TYPE F F F U
COUNT 1 1 1 1
WIDTH 162
HEIGHT 1
VIEWPOINT 0 0 0 1 0 0 0
POINTS 162
DATA ascii
-0.03206563 0.044258177 0.050748251 287
-0.03317523 0.043685496 0.050771721 65567
-0.034299999 0.043143332 0.050800823 65567
-0.032127351 0.044333339 0.049510248 776
-0.033236533 0.043760061 0.049533613 275
-0.034360886 0.043217301 0.049562708 785
-0.035469741 0.042643726 0.049586006 527876
-0.036578476 0.04207015 0.049609259 3290143
-0.037702918 0.041528583 0.049638532 1185539
-0.032197744 0.044425607 0.048275739 5265436
-0.033305585 0.043850005 0.048298679 512
-0.034413397 0.043274462 0.04832162 3754554
-0.035536647 0.042730093 0.048350446 5727252
-0.036644042 0.042154133 0.048373312 5791252
-0.037767559 0.041610897 0.048402347 1844224
-0.038875222 0.041035831 0.048425347 531
-0.031124979 0.045047104 0.047635615 6711830
-0.032245189 0.044496059 0.047663242 6579491
-0.03335157 0.043917835 0.047685683 512
-0.034475118 0.043374062 0.047714695 3292209
-0.035581172 0.042795539 0.047737062 5529861
-0.036703944 0.042226613 0.047135405 6251789
-0.037826121 0.041680992 0.047164075 2238976
-0.038380861 0.041395426 0.047175959 132097
-0.031171024 0.045091033 0.04639218 2370048
-0.032291532 0.044540763 0.046420038 1778176
-0.033397675 0.043962121 0.046442412 4
-0.034521163 0.043418348 0.046471499 725255
-0.035626918 0.042839348 0.046493791 5792004
-0.036732703 0.042260468 0.046516091 5988617
-0.037854701 0.041714609 0.046544738 3094019
-0.038409263 0.041428685 0.046556562 197632
-0.039510489 0.040840924 0.046577141 287
-0.031207561 0.045116246 0.045145184 4477193
-0.03232795 0.044565737 0.045173071 6251564
-0.033433944 0.043986857 0.045195423 256
-0.034557313 0.043442845 0.045224562 66560
-0.035662949 0.042863667 0.045246825 6120455
-0.036768585 0.042284548 0.045269087 6053638
-0.037874192 0.04170537 0.045291357 4014087
-0.038444906 0.041452289 0.045309573 197376
-0.039545804 0.040863872 0.045330033 24
-0.04065305 0.040288448 0.04535301 34
-0.041770697 0.039734662 0.045380153 65827
-0.042899042 0.039203286 0.045411654 14
-0.030130267 0.045705199 0.043872826 4609075
-0.031244367 0.045141995 0.043898299 6119942
-0.032364607 0.044591248 0.043926239 6184981
-0.033488214 0.044047475 0.043955535 512
-0.034593731 0.043467939 0.043977745 66560
-0.035699219 0.042888403 0.04399997 6185994
-0.036804676 0.042308986 0.044022195 6053636
-0.037926435 0.04176265 0.044050924 4474375
-0.038480729 0.04147625 0.044062681 131840
-0.039565802 0.040855467 0.044076793 131096
-0.040673703 0.040281296 0.044100039 34
-0.041805893 0.039757311 0.044133104 34
-0.042933434 0.039224386 0.044164397 17
-0.030167729 0.045732141 0.04262618 4672316
-0.031281382 0.045168161 0.042651549 5396224
-0.032401502 0.044617116 0.042679504 6251286
-0.033507168 0.0440377 0.042701773 768
-0.034630328 0.04349333 0.042731032 768
-0.035735667 0.042913616 0.042753212 5923853
-0.036840975 0.042333841 0.042775407 5462272
-0.037962586 0.041787267 0.042804174 5001486
-0.03851673 0.041500568 0.042815894 395776
-0.039601505 0.04087925 0.042829804 278
-0.040709287 0.04030484 0.042853042 288
-0.041841209 0.039780319 0.042886138 66597
-0.042967975 0.039245784 0.042917229 19
-0.030205399 0.045759559 0.04137966 3883065
-0.031318665 0.045194805 0.04140494 5988609
-0.032438576 0.044643402 0.041432887 6382611
-0.033561945 0.044099331 0.041462302 66304
-0.034667134 0.043519199 0.041484423 768
-0.035772324 0.042939126 0.041506574 6121233
-0.036877483 0.042359114 0.041528724 6120195
-0.037982643 0.04177922 0.041550882 5527312
-0.03855294 0.041525304 0.041569196 395264
-0.039637387 0.04090333 0.04158292 277
-0.04074505 0.040328681 0.041606128 65568
-0.041863322 0.039776087 0.041633733 295
-0.043002635 0.039267421 0.041670114 21
-0.030243367 0.045787573 0.04013329 3884099
-0.031356156 0.045221925 0.040158436 6055206
-0.032475859 0.044670165 0.04018639 6645558
-0.033599138 0.044125855 0.04021585 768
-0.034704119 0.043545425 0.040237933 256
-0.035809159 0.042965114 0.040260024 5526837
-0.03691417 0.042384803 0.040282138 4737311
-0.03801915 0.041804552 0.040304251 4737322
-0.038589299 0.041550398 0.040322609 2303258
-0.039688915 0.040959418 0.040342532 529
-0.040781021 0.040353 0.040359318 65567
-0.041912317 0.039827287 0.040392444 34
-0.043037415 0.039289355 0.040423065 23
-0.029171079 0.046386302 0.038862824 520
-0.030281574 0.045816004 0.038887046 258
-0.031393915 0.045249522 0.038912065 512
-0.032531679 0.044733644 0.038947485 65792
-0.033636481 0.044152796 0.038969509 256
-0.034741342 0.043572068 0.038991541 0
-0.035846174 0.0429914 0.039013602 131840
-0.036951035 0.042410791 0.039035663 66816
-0.037521631 0.042157412 0.039054252 527872
-0.038625866 0.041575849 0.039076097 462083
-0.039725125 0.040984213 0.039095879 776
-0.040817112 0.040377557 0.039112583 66332
-0.041934848 0.039823949 0.039140135 65829
-0.043061405 0.039288819 0.03917145 23
-0.029209435 0.046415031 0.037616663 4740144
-0.030360729 0.045924902 0.037657663 5132859
-0.031470686 0.045354128 0.037681796 1183747
-0.032588392 0.044798851 0.037709147 5920317
-0.033692628 0.04421705 0.037730984 1711881
-0.034779221 0.043600023 0.037745476 65536
-0.035901189 0.043053865 0.037774697 6052140
-0.037005484 0.042472363 0.037796572 3749639
-0.037559271 0.042184949 0.03780821 2039552
-0.038663357 0.041603208 0.037830018 855057
-0.039762229 0.041010737 0.037849627 17
-0.0408687 0.040433884 0.037872456 287
-0.041984975 0.039877415 0.037899479 547
-0.043108612 0.039336503 0.037929684 17
-0.027537495 0.047235787 0.036946833 1187589
-0.028150171 0.047062218 0.036982447 3885350
-0.029266953 0.046504378 0.037009329 3753489
-0.030375332 0.045930326 0.037032813 2107142
-0.03148526 0.045359492 0.037056953 262400
-0.032623291 0.044844449 0.037092775 6643515
-0.033726901 0.044261634 0.037114374 922112
-0.034811527 0.043640792 0.037128046 262913
-0.035915673 0.043058932 0.037149854 6775855
-0.037002981 0.042443097 0.037164576 3683840
-0.037590176 0.042198956 0.036559358 5527330
-0.038694143 0.041616857 0.036581114 131594
-0.039792538 0.041023493 0.0366005 65567
-0.04089886 0.040446281 0.036623299 288
-0.042001843 0.039862335 0.036644652 34
-0.043137968 0.039347172 0.036680326 11
-0.027595878 0.047303319 0.0357088 3028746
-0.028205365 0.047123671 0.035743386 5792551
-0.029321045 0.046563864 0.035769925 4147726
-0.030428201 0.045987606 0.035792932 2503960
-0.031536698 0.04541409 0.035816535 66048
-0.032634079 0.044818699 0.035835505 6381350
-0.033737898 0.044236004 0.035857156 66048
-0.034860581 0.043691158 0.035886809 131840
-0.035963953 0.043107927 0.035908327 1908992
-0.037049532 0.042488694 0.035922274 6580002
-0.037602931 0.042200506 0.035933778 5198363
-0.038706601 0.041617751 0.035955399 197389
-0.039804339 0.041022956 0.035974503 288
-0.040910393 0.040445209 0.035997182 33
-0.042013407 0.039861321 0.036018565 66081
-0.043148309 0.039343536 0.036053777 9
-0.031590492 0.045473397 0.03457728 4738107
-0.032686979 0.044876397 0.034595892 5265445
-0.040959269 0.040495992 0.034756094 36
-0.042075247 0.039939046 0.034783185 29
-0.043194056 0.03938812 0.034811527 11
