# .PCD v0.7 - Point Cloud Data file format
VERSION 0.7
FIELDS x y z rgba
SIZE 4 4 4 4
TYPE F F F U
COUNT 1 1 1 1
WIDTH 850
HEIGHT 1
VIEWPOINT 0 0 0 1 0 0 0
POINTS 850
DATA ascii
0.020799577 -0.045626283 0.051153392 7436951
0.021890193 -0.045000255 0.051167585 6583437
0.044048578 -0.033135593 0.051573873 2
0.020839632 -0.045657814 0.049899541 6253192
0.021946102 -0.045062184 0.049919382 5662335
0.023037642 -0.044437706 0.049933814 5727618
0.024137169 -0.043828487 0.049951121 5924227
0.02524671 -0.043238461 0.049972028 6055298
0.026339769 -0.042616308 0.049986929 5858685
0.027420104 -0.041968942 0.049997129 6844046
0.028502405 -0.041324914 0.050007991 12
0.042983174 -0.033766747 0.050300688 278
0.044080317 -0.033150733 0.050316826 5
0.04517284 -0.032524765 0.050331146 131347
0.046278387 -0.031926155 0.05035048 65805
0.047379345 -0.031317592 0.050368011 131093
0.020902842 -0.045733452 0.048654139 6318983
0.021995097 -0.045110822 0.048668839 5924994
0.02308777 -0.044488728 0.048683651 6055815
0.024189919 -0.043884635 0.048701875 5990788
0.025301337 -0.043298483 0.048723504 5924997
0.02639547 -0.042678654 0.048738778 5727615
0.027477413 -0.042034566 0.048749477 5857931
0.028561175 -0.041393638 0.048760787 282
0.029649377 -0.040761054 0.048773699 19
0.030186027 -0.040429831 0.048777349 19
0.040803254 -0.034977317 0.049004719 18
0.041913003 -0.034387827 0.049025737 21
0.043013841 -0.0337798 0.049043283 22
0.044124246 -0.033191621 0.049064547 13
0.045217514 -0.032567382 0.049079105 21
0.046311051 -0.031943262 0.049093708 20
0.047412366 -0.031335533 0.049111351 287
0.048533618 -0.030770361 0.049136877 285
0.049116015 -0.030534744 0.049158283 66070
0.050247043 -0.029991329 0.049187787 19
0.011105269 -0.051363528 0.047898099 13
0.011664599 -0.051077783 0.047910295 12
0.012749851 -0.050444782 0.04792282 197140
0.013848692 -0.049836576 0.047940157 20
0.014933616 -0.049202383 0.047952481 65550
0.016019821 -0.048570096 0.047965191 278
0.017112851 -0.047950327 0.047980338 18
0.018182784 -0.047286689 0.047987066 12
0.019277394 -0.046669126 0.048002683 13
0.020375937 -0.046058893 0.048019685 7041425
0.020929009 -0.04576093 0.048029557 6186884
0.022025108 -0.04514569 0.048045628 6187139
0.023121446 -0.044530809 0.048061766 5923714
0.02422747 -0.043934405 0.048081443 5924225
0.025342226 -0.043354869 0.048104346 5727364
0.026437879 -0.042738199 0.048120178 5858432
0.027538478 -0.042107642 0.047503434 6385043
0.028623968 -0.041470289 0.047515318 6253708
0.029726565 -0.040866494 0.047533609 6581905
0.030263662 -0.040536284 0.047537372 6648468
0.031355739 -0.039911211 0.047551632 5860490
0.032449782 -0.039289653 0.047566578 5991308
0.033567369 -0.038715303 0.047590502 5991051
0.034676284 -0.038123548 0.04761111 5660290
0.035799623 -0.037561059 0.047637254 5397121
0.036928475 -0.037010074 0.047665566 4673398
0.03802976 -0.03640306 0.047683276 4278897
0.039160192 -0.03585583 0.047712274 3949932
0.039736301 -0.035604894 0.047731042 3424611
0.040846705 -0.035016894 0.047752336 3160408
0.041953802 -0.03442198 0.047772311 2172997
0.043052584 -0.033809721 0.047789037 2041159
0.044148624 -0.033191442 0.047804639 1253440
0.045240343 -0.032563686 0.047818482 463408
0.046344042 -0.031961083 0.047837049 265000
0.047456622 -0.031377375 0.047859155 537
0.048562944 -0.030780315 0.047878765 537
0.049156398 -0.030568421 0.04790473 20
0.050271362 -0.029990375 0.047927879 790
0.011117995 -0.051344454 0.046635248 24
0.01168406 -0.051070988 0.046649866 131093
0.01277265 -0.050444067 0.046663493 10
0.0138641 -0.049822032 0.046678096 131347
0.01495418 -0.049197257 0.04669217 8
0.016045183 -0.048573852 0.046706535 13
0.017129213 -0.047937036 0.046718322 24
0.018217385 -0.04730773 0.046731554 277
0.019315481 -0.046696782 0.046748385 18
0.020417184 -0.04609257 0.046766527 7041429
0.020972699 -0.045799315 0.046777293 5857919
0.022073239 -0.045192719 0.046794988 5990271
0.023188382 -0.044614136 0.046818078 5792894
0.024283648 -0.043997228 0.046833776 5859202
0.025401682 -0.043424308 0.046857946 5662084
0.026500016 -0.042813063 0.046874762 5727618
0.027585655 -0.042176783 0.046886772 5990538
0.028672874 -0.041543186 0.046899296 6056329
0.029777467 -0.040943563 0.046918377 6319504
0.03030169 -0.040588021 0.046917237 6385297
0.03140679 -0.039989054 0.046936452 6386059
0.03251344 -0.039393127 0.046956241 6780306
0.033614248 -0.038785398 0.04697378 6845582
0.034750193 -0.03822422 0.046370208 5923965
0.035868764 -0.037652373 0.046394616 5727869
0.036977261 -0.037060261 0.046415128 5925248
0.038086772 -0.036470175 0.046436049 5991041
0.039212912 -0.035914361 0.046463475 6253962
0.039772898 -0.035630226 0.046476007 6451341
0.040880471 -0.035036385 0.046496175 6517131
0.041984767 -0.034435689 0.046515062 6517385
0.043095589 -0.033848524 0.046536513 6911889
0.04418835 -0.033223391 0.046550758 7043735
0.045276672 -0.032588661 0.046563193 6649231
0.046378255 -0.031981528 0.046580881 6911889
0.047474861 -0.031363726 0.046596557 6911112
0.048577607 -0.030758798 0.046614669 6711939
0.049168855 -0.030542076 0.046639919 263707
0.01114881 -0.051358521 0.045378782 26
0.011702865 -0.051063001 0.045389093 278
0.01280579 -0.050462365 0.045407839 10
0.013887435 -0.049822211 0.045418799 275
0.01497978 -0.049201548 0.045433618 10
0.016072839 -0.048581958 0.045448668 275
0.017159134 -0.047949314 0.04546117 30
0.018250734 -0.047326386 0.045475587 278
0.019351333 -0.046720266 0.04549332 987172
0.02045539 -0.046120524 0.045512289 6909841
0.020997882 -0.045802414 0.045518219 5989760
0.022116154 -0.045229793 0.045542508 6056834
0.02323392 -0.044656277 0.045566618 5859201
0.02433145 -0.044043899 0.045583129 5924225
0.025451064 -0.043474138 0.045607954 5594751
0.026551664 -0.042867482 0.045625605 5990020
0.027637959 -0.042232573 0.045637779 5858432
0.028726816 -0.041602373 0.045650877 5398650
0.029831588 -0.041003346 0.045670033 6122382
0.030368656 -0.040673375 0.045673721 5661833
0.03145957 -0.040046453 0.045687497 5726848
0.032565862 -0.03944999 0.045707159 5923198
0.033665091 -0.038839281 0.045724094 6186369
0.034781426 -0.038262904 0.045747653 5726588
0.035881579 -0.037653863 0.045764901 5530236
0.036987126 -0.037055671 0.04578425 5464954
0.038094103 -0.03646028 0.04580415 5464697
0.039217502 -0.035898805 0.04583054 5596289
0.039774656 -0.035608709 0.045841947 5661571
0.040893018 -0.03503716 0.045866385 5661825
0.04199475 -0.03443104 0.045884222 5661823
0.043106139 -0.033819377 0.045271009 5531007
0.044197381 -0.033190846 0.045284554 5399421
0.045298308 -0.032582402 0.045301951 5530237
0.046397477 -0.031970084 0.045318626 5793157
0.047491699 -0.031347036 0.045333244 6122373
0.048590899 -0.03073436 0.045349851 5265006
0.049179971 -0.03051281 0.045374349 18
0.010629922 -0.051676095 0.044113569 24
0.011740565 -0.051089704 0.044135123 277
0.012834281 -0.050472081 0.044150472 66070
0.013917446 -0.049834728 0.044161864 275
0.015012354 -0.049218774 0.044177577 10
0.016121864 -0.04862994 0.044198662 278
0.017210871 -0.048002541 0.044212125 26
0.018306077 -0.047386587 0.044227846 20
0.019409597 -0.046786129 0.044246651 2303282
0.020499766 -0.046160221 0.044260435 6778504
0.021058023 -0.045872271 0.044272259 6120826
0.022178799 -0.045304596 0.044297554 5792641
0.02329883 -0.044735789 0.04432261 6121606
0.024411887 -0.04415369 0.044345036 6187399
0.025518209 -0.043558478 0.044364884 6055298
0.026619583 -0.04295367 0.04438284 6186884
0.02770704 -0.042321384 0.044395417 6317955
0.028795987 -0.041691661 0.04440853 3227992
0.029885828 -0.041063368 0.044421911 2175568
0.03043732 -0.040762126 0.044431135 3359329
0.031526417 -0.040131927 0.044444188 5923195
0.032631785 -0.039533854 0.04446353 5792639
0.033728093 -0.038917542 0.044479303 5792894
0.034824163 -0.038300514 0.044494949 5792639
0.035935044 -0.037713349 0.044516429 6056066
0.037035078 -0.03710413 0.04453361 5924219
0.038138002 -0.036500573 0.044551902 5924730
0.039257735 -0.035931587 0.044576906 6056581
0.039811254 -0.035634041 0.044586867 5793411
0.040913016 -0.03502804 0.044604696 5857919
0.042026222 -0.034445703 0.044627108 5727101
0.043118894 -0.03382045 0.044641212 5662082
0.044208437 -0.033188343 0.044654012 5661822
0.04530704 -0.032574952 0.044670448 5858172
0.046403944 -0.031957686 0.044686161 5858432
0.047495902 -0.031329691 0.044699788 6122109
0.048591673 -0.030709505 0.044714965 5265004
0.049176753 -0.030479372 0.044737875 276
0.01065585 -0.051681221 0.042855263 26
0.011768848 -0.051099122 0.042877696 278
0.012865216 -0.050486386 0.042893969 24
0.013964176 -0.04987824 0.042911179 65817
0.015061468 -0.049266815 0.042927727 13
0.016159117 -0.048655927 0.042944372 19
0.017264873 -0.04806006 0.042964071 26
0.018362254 -0.047448337 0.042980589 277
0.019467205 -0.046850801 0.042999946 3157821
0.020003974 -0.0465222 0.043003656 6843007
0.021117091 -0.045940042 0.043026097 4804716
0.022239953 -0.045376658 0.043052286 4279918
0.0233621 -0.044812083 0.043078229 5661573
0.024476677 -0.044233203 0.043101296 5661825
0.025598377 -0.043668211 0.043127134 5333111
0.026700616 -0.043065488 0.043145455 5596029
0.027774155 -0.042406321 0.043152601 6187139
0.028863192 -0.041777074 0.043165684 5201782
0.029397786 -0.041442692 0.043168344 5202295
0.030502915 -0.040844738 0.043187656 5465206
0.031607091 -0.040244937 0.043206602 5662326
0.032694548 -0.039611459 0.043218918 5662848
0.033788145 -0.038989961 0.043233611 5728128
0.03487888 -0.038362384 0.043247119 5860227
0.03600201 -0.037800312 0.043273523 5925759
0.037079483 -0.037145257 0.043281652 6120828
0.03817755 -0.036531925 0.043298006 6187389
0.038739204 -0.036251068 0.043311238 6187389
0.039843976 -0.035651386 0.043330275 6187650
0.040957987 -0.035070777 0.043353029 6384776
0.042054683 -0.034454167 0.043368757 6318983
0.04314512 -0.033824146 0.04338187 6188169
0.044247419 -0.033218801 0.043399811 6318725
0.045328379 -0.032568157 0.043408938 6318207
0.04642272 -0.031945348 0.043423511 6121598
0.047512054 -0.031311512 0.043435968 6252665
0.048048735 -0.030977428 0.043438844 6975873
0.049184799 -0.03044349 0.043470688 18
0.010686606 -0.051695228 0.041598707 278
0.011815935 -0.05114305 0.041627273 275
0.012901068 -0.050509691 0.041639298 65556
0.014001369 -0.049904048 0.041656964 24
0.015100002 -0.049295187 0.041673981 277
0.016198814 -0.048686504 0.041691057 275
0.017291099 -0.048065424 0.041705616 24
0.018389374 -0.047455311 0.041722417 277
0.019494802 -0.046858609 0.041741945 3750213
0.020048052 -0.046561241 0.041751899 7106179
0.021161228 -0.045979321 0.041774407 6120317
0.022284538 -0.045416832 0.041800827 6121604
0.023407131 -0.04485327 0.041827001 5793411
0.024522305 -0.044275641 0.041850351 5662336
0.025644332 -0.043711364 0.041876376 5464443
0.026747882 -0.043111324 0.041895218 6056580
0.02782312 -0.042455614 0.0419029 6252414
0.028912753 -0.041827679 0.041916177 5068656
0.02944681 -0.041492343 0.041918546 5068656
0.030550301 -0.04089129 0.04193721 5396851
0.031652659 -0.040287912 0.041955441 2832474
0.032738209 -0.039650738 0.041966915 1780287
0.033829302 -0.039024353 0.041980565 993602
0.034916013 -0.038388729 0.041992389 1058880
0.036036938 -0.037822127 0.042017959 1715782
0.037127286 -0.037193418 0.042031191 2371407
0.038205713 -0.036539912 0.042039514 1846088
0.038765192 -0.036254585 0.042051896 2241359
0.039868087 -0.035650969 0.042070128 1978440
0.040965587 -0.035035908 0.04208611 2109254
0.042060792 -0.03441596 0.04210113 2108225
0.043165892 -0.033816457 0.042120196 2568774
0.04425174 -0.033176303 0.042131267 2766153
0.045348436 -0.03255862 0.042146772 3620179
0.046441674 -0.031933367 0.042160802 4080223
0.047530025 -0.031297266 0.04217273 5066590
0.048062414 -0.030953884 0.042173736 6513519
0.010703355 -0.051683605 0.040336855 278
0.011821985 -0.051111639 0.040361442 12
0.012923151 -0.050507605 0.040379405 24
0.014012724 -0.049881995 0.040392943 24
0.015113235 -0.049276412 0.040410623 277
0.016226828 -0.048695266 0.040433303 13
0.017321378 -0.048078299 0.040448658 26
0.01842171 -0.04747206 0.040466204 278
0.019528568 -0.046878099 0.040486261 4408911
0.020082951 -0.046582937 0.04049667 7304840
0.021196812 -0.046002269 0.040519461 5199726
0.022321641 -0.04544276 0.040546536 4871537
0.023445755 -0.044882178 0.040573388 6055811
0.024561852 -0.044306338 0.040597133 5793409
0.025685281 -0.043744862 0.040623784 5464703
0.026789784 -0.043146729 0.040642977 5530498
0.027867019 -0.042495012 0.040651329 5988988
0.02897346 -0.041900277 0.040671244 4474459
0.029507786 -0.041565597 0.040673643 4211542
0.030594438 -0.040931404 0.040685587 4278111
0.031694889 -0.040324271 0.040703028 1591
0.032762527 -0.039651334 0.040707208 287
0.033867955 -0.039053619 0.040726557 546
0.034951508 -0.038411677 0.040737025 33
0.036070198 -0.037840605 0.040761732 543
0.037157506 -0.037205637 0.04077363 32
0.038233012 -0.036546111 0.040780626 551
0.038807064 -0.036290765 0.040799037 551
0.039907932 -0.035682976 0.040816404 546
0.041003764 -0.035064578 0.04083167 534
0.042097747 -0.034442067 0.040846109 131360
0.043186277 -0.033807874 0.040858261 658457
0.044271469 -0.03316617 0.040868916 791074
0.045368105 -0.032548249 0.040884338 1448485
0.04646042 -0.03192085 0.040897869 856875
0.047547907 -0.031282842 0.040909335 4144459
0.04807815 -0.030934691 0.040909275 6249573
0.01070559 -0.051666498 0.039703541 277
0.011844188 -0.05110985 0.039101548 15
0.012947321 -0.050509334 0.039120227 24
0.014038593 -0.049886823 0.039134346 275
0.015154153 -0.049309254 0.039157778 9
0.01625666 -0.048707306 0.039176188 10
0.017353356 -0.048094392 0.039192326 280
0.018455595 -0.047491789 0.039210595 277
0.019563824 -0.046900392 0.039231174 4935512
0.02011928 -0.046607256 0.039242007 7567751
0.021233767 -0.046027839 0.039265066 5923195
0.022375464 -0.045500696 0.03929887 5529467
0.023485839 -0.044913769 0.039320365 6186369
0.024603516 -0.044341087 0.03934478 6317451
0.025728256 -0.043782294 0.039372027 5135229
0.026833594 -0.04318583 0.039391555 5069949
0.027926892 -0.042565703 0.039406247 5990020
0.029019743 -0.041944504 0.039420716 5396854
0.029553413 -0.041608512 0.039422773 4804966
0.030638307 -0.040970981 0.039433934 4016722
0.031720012 -0.040326536 0.039443746 5133947
0.032802194 -0.039682627 0.039453641 4410473
0.033888131 -0.039045751 0.03946504 3688294
0.034986019 -0.038432658 0.039481252 4149358
0.036084384 -0.037820339 0.039497636 3819878
0.037186712 -0.037215829 0.039515637 3556449
0.038259536 -0.03655076 0.039521374 3029083
0.038831949 -0.036291957 0.039539173 3094364
0.039931178 -0.035680711 0.039555803 2568022
0.041025668 -0.035059452 0.039570428 1911372
0.042102009 -0.034399986 0.03957738 1648713
0.043206185 -0.033798277 0.039595984 991033
0.044290781 -0.033155262 0.039606281 594992
0.045371175 -0.03250277 0.039614707 397088
0.046478689 -0.03190732 0.0396346 1311
0.04756546 -0.031267643 0.039645627 2828094
0.048093945 -0.030915678 0.039644718 6446703
0.010722786 -0.05165565 0.038441636 17
0.011849731 -0.051098704 0.038469426 275
0.012941062 -0.050476372 0.038483538 24
0.014047295 -0.049881399 0.038503379 13
0.015165061 -0.049307883 0.038527682 8
0.016269386 -0.048709333 0.038546786 13
0.017367989 -0.048099995 0.038563631 23
0.018472105 -0.047500789 0.038582608 277
0.019598484 -0.046921551 0.037975863 5658978
0.020155132 -0.046630681 0.03798718 7238788
0.021285623 -0.046081901 0.038016625 5463929
0.022414029 -0.045529425 0.038045295 4805486
0.023526996 -0.044947565 0.038067847 6185595
0.024646521 -0.044378459 0.038093038 6185859
0.025771827 -0.043820798 0.038120605 5922946
0.026877731 -0.043225586 0.038140364 5463927
0.027971685 -0.04260689 0.03815528 5136249
0.029065102 -0.041986883 0.038169928 3556959
0.029613435 -0.041679919 0.038177893 3622493
0.030696899 -0.041039705 0.038188405 2305612
0.031777442 -0.040393233 0.038197644 6056329
0.032840222 -0.039710701 0.038199499 5070460
0.033923239 -0.039067924 0.038209572 992339
0.035018533 -0.038449585 0.038224675 2174555
0.036114305 -0.037831962 0.038239919 2831194
0.037213862 -0.037221789 0.038256735 2765658
0.038283885 -0.036550879 0.03826113 3554917
0.038854659 -0.036288679 0.038278311 3554149
0.039952278 -0.035674036 0.038294204 4214387
0.041045398 -0.035049796 0.038308188 4608883
0.042120278 -0.034387171 0.03831435 5067889
0.043223917 -0.033784151 0.038332671 5332339
0.044307888 -0.033139586 0.038342565 5463674
0.045387834 -0.032486022 0.038350642 5856891
0.04647848 -0.03185463 0.038363241 6184829
0.047580689 -0.031247497 0.038380802 7499902
0.048107535 -0.030891895 0.038379043 7236727
0.010745525 -0.051654935 0.037181742 275
0.011875778 -0.051104069 0.037210882 17
0.012969404 -0.050485849 0.037225798 66071
0.014078438 -0.049896002 0.037246734 8
0.015199363 -0.049328327 0.037272297 12
0.016306311 -0.048734665 0.037292413 278
0.017407537 -0.048130274 0.037310265 278
0.018514276 -0.047536135 0.037330277 277
0.019625127 -0.046949863 0.037351929 5725030
0.020182937 -0.046661198 0.037363693 7107459
0.021314055 -0.04611367 0.037393451 5201271
0.02244544 -0.045566976 0.03742338 4608618
0.023560286 -0.04498893 0.03744673 5922934
0.024695575 -0.044450521 0.037478328 6054270
0.025821418 -0.043894172 0.037506178 5462136
0.026928216 -0.043301046 0.037526354 4674150
0.02804023 -0.042694628 0.03691411 5989758
0.029134184 -0.042075992 0.036928982 5332582
0.029664993 -0.041734576 0.036929727 5594985
0.030746281 -0.04109025 0.036939263 5068153
0.031807899 -0.040406108 0.03694056 7041419
0.032884568 -0.039751351 0.036947981 4542061
0.033964485 -0.039102495 0.036956698 201024
0.03505668 -0.038477957 0.036970451 1120324
0.036149412 -0.037854195 0.036984369 1908552
0.037245929 -0.037237883 0.036999866 987961
0.03832984 -0.036595404 0.037009969 1777474
0.038880944 -0.036292791 0.037018865 1711935
0.039976418 -0.035673618 0.037033811 1646148
0.041068405 -0.035046935 0.037047215 1448771
0.042142063 -0.034381628 0.037052684 1711681
0.043245286 -0.033777595 0.037070788 791858
0.044328719 -0.033131838 0.037080325 1318719
0.045408279 -0.032477319 0.037088081 858684
0.046498299 -0.031844378 0.0371003 1121603
0.047584146 -0.031202197 0.037110656 4607076
0.048125416 -0.030877352 0.037115067 5659502
0.010755152 -0.051630259 0.035916626 275
0.011888742 -0.051085293 0.035947129 7
0.013000697 -0.050500751 0.035969198 12
0.014111996 -0.049915135 0.035991013 10
0.015235245 -0.049351752 0.036017552 278
0.016344428 -0.048762321 0.036038548 21
0.017447948 -0.048162222 0.036057293 65551
0.018557042 -0.047572672 0.036078244 13
0.019115925 -0.047286034 0.036090463 132374
0.020229816 -0.046705663 0.036113381 7174282
0.021361351 -0.046158969 0.036143407 5728637
0.022494614 -0.04561609 0.036174208 6057343
0.023611814 -0.045042634 0.036198556 6187902
0.024747968 -0.044506013 0.036230639 6054783
0.025874943 -0.043952107 0.036259055 6186116
0.026982605 -0.04336077 0.036279589 6252414
0.028064132 -0.042718172 0.036289394 6120828
0.028618842 -0.042424083 0.036300004 3225932
0.029702574 -0.04178524 0.036310583 4608090
0.030783236 -0.041139841 0.036319852 2831191
0.031860381 -0.040486932 0.036327556 6580868
0.032936037 -0.039830446 0.036334544 4672617
0.034012109 -0.039174139 0.036341608 1910089
0.03510052 -0.038542271 0.036353797 2041159
0.036207497 -0.037923157 0.035738617 6054514
0.037283182 -0.037264407 0.035745189 5133672
0.038364947 -0.036617637 0.035754278 4607587
0.038914591 -0.036312044 0.035762534 5002085
0.040008932 -0.035690486 0.035776928 4345187
0.04109928 -0.035060406 0.035789549 3622489
0.042171389 -0.03439182 0.035794184 3227992
0.043257445 -0.033751786 0.035804793 3293277
0.04435733 -0.033140421 0.035821348 2370892
0.045421422 -0.03245312 0.035822213 2304331
0.046511084 -0.031819224 0.035834163 1778506
0.047596961 -0.031176865 0.035844356 5593728
0.048137158 -0.030849636 0.03584823 5527927
0.010769278 -0.051613808 0.034653112 278
0.011907399 -0.051076949 0.034685478 12
0.013023674 -0.050500274 0.034709245 8
0.014137536 -0.049919307 0.034732088 5
0.01526323 -0.049360394 0.034759656 15
0.016374946 -0.048775673 0.034781665 24
0.01748094 -0.048180282 0.034801394 131345
0.018592685 -0.04759568 0.034823433 12
0.019153237 -0.04731226 0.034836337 922919
0.020268708 -0.046734869 0.034859911 7043725
0.021401227 -0.046190143 0.034890443 5991552
0.022536248 -0.045650661 0.034922078 5925759
0.023655504 -0.045081258 0.034947321 5924994
0.024793088 -0.044547498 0.034980118 5858434
0.025922716 -0.043998897 0.035009742 6318734
0.027032435 -0.043411732 0.035031155 6055298
0.02813074 -0.042802155 0.035047814 6055553
0.028674155 -0.042486012 0.03505376 6319236
0.02975744 -0.041846454 0.035064086 5661306
0.030837029 -0.041199088 0.035072803 2832474
0.031912625 -0.040543258 0.035079762 6712203
0.033001423 -0.039913356 0.03509222 4935014
0.034073085 -0.039248407 0.035097301 3553602
0.035140634 -0.038574576 0.035100549 4277333
0.036226511 -0.037937164 0.035111502 5264479
0.037316769 -0.037308335 0.035124272 5001826
0.037821263 -0.036910594 0.035113201 5265258
0.038921893 -0.03630203 0.035130262 5133923
0.040013522 -0.03567481 0.03514342 5266540
0.041102082 -0.035040915 0.035155207 5201772
0.042172074 -0.0343678 0.035158843 5728119
0.04325676 -0.033724666 0.035168752 6187397
0.044355989 -0.033085883 0.034549132 3619932
0.045435905 -0.032431722 0.034556717 4211304
0.046524197 -0.031794786 0.034567952 3948903
0.047608793 -0.031149387 0.034577459 6647186
0.048147053 -0.030817926 0.034580365 6054784
0.010776997 -0.051585555 0.033386871 280
0.011919349 -0.051056325 0.03342104 275
0.013053775 -0.050513029 0.033452079 9
0.01417163 -0.049939394 0.033476546 10
0.015286833 -0.049360991 0.033499956 15
0.016415536 -0.048807979 0.033528849 26
0.017510384 -0.048191607 0.033544034 277
0.018639356 -0.047639489 0.033573106 263
0.019202113 -0.047360361 0.033586964 1582138
0.020305961 -0.046760976 0.033605814 6583184
0.021426022 -0.046192527 0.033631325 4413557
0.022563457 -0.045657575 0.033664048 4544632
0.023699194 -0.045119882 0.03369616 5924995
0.024825573 -0.044564545 0.033724427 5989760
0.025957584 -0.044020534 0.033755139 5528954
0.027068883 -0.043436468 0.033777222 5398134
0.028167874 -0.042828321 0.033794165 4215151
0.028725594 -0.042540312 0.033806056 2834272
0.029807925 -0.041899025 0.03381592 2899808
0.030885935 -0.041248679 0.033823878 3685984
0.031959563 -0.040589094 0.033829883 7238032
0.033029854 -0.039922118 0.033834353 1909314
0.034095436 -0.03924495 0.033836693 287
0.035172343 -0.038589895 0.033843786 34
0.036251515 -0.037938833 0.033851728 272
0.037337214 -0.037300587 0.033862427 131093
0.037837982 -0.036895096 0.033849493 131094
0.038934737 -0.036278546 0.033864826 274
0.040023416 -0.035644948 0.033876613 12
0.041092426 -0.034970164 0.033879682 274
0.042177558 -0.034328222 0.033889726 16
0.043260872 -0.033681989 0.03389889 29
0.044342935 -0.033032596 0.033907413 289
0.045422584 -0.032377541 0.033914775 295
0.046510547 -0.031739533 0.033925772 550
0.047594965 -0.031093538 0.033935085 5462911
0.048131257 -0.030757606 0.033937037 5527926
0.010781169 -0.051550865 0.032119006 17
0.011943102 -0.051057398 0.032161176 12
0.013068855 -0.050498009 0.032188818 13
0.014191926 -0.04993391 0.032215402 277
0.01532495 -0.049388587 0.032246083 278
0.016442508 -0.048814774 0.032270521 24
0.017554462 -0.048230529 0.032292664 18
0.018685728 -0.047682822 0.032322779 524
0.019237757 -0.047383368 0.032332242 2175564
0.020357847 -0.046814919 0.032357797 6385556
0.021479577 -0.046249807 0.032384098 3426664
0.022619545 -0.045719862 0.032418013 4347766
0.023757756 -0.045187175 0.032451302 5859714
0.02488634 -0.044636369 0.032480627 5925248
0.026020169 -0.044096112 0.032512218 4477798
0.027134448 -0.043518126 0.032535642 5267064
0.028236717 -0.042916656 0.032553956 4741493
0.028795481 -0.042630911 0.032566354 3887213
0.029877722 -0.041989803 0.032576144 3822711
0.030941904 -0.041312337 0.032578111 4412793
0.032013506 -0.040648818 0.032583103 6450056
0.033080369 -0.039975166 0.032585979 3226463
0.034156829 -0.039320111 0.032592863 1118784
0.035211712 -0.03862077 0.0325903 1841729
0.036284089 -0.03795594 0.032595187 1711925
0.037365526 -0.037308931 0.032603905 1711147
0.037883103 -0.036937833 0.032598108 1974827
0.038956225 -0.036272764 0.032603011 2303541
0.0400424 -0.035633862 0.032613561 1711404
0.041127473 -0.034992278 0.032623559 2170930
0.04219389 -0.034311295 0.032625183 1317414
0.043276221 -0.033662796 0.032633781 1844283
0.044358253 -0.033013165 0.032642141 1317687
0.045437992 -0.03235805 0.032649368 1120055
0.046525955 -0.031719923 0.032660231 264746
0.047054529 -0.031367838 0.032658666 2830673
0.048143089 -0.030730069 0.032669663 5988477
0.010808766 -0.051559031 0.030860454 24
0.011961043 -0.051047802 0.030898869 285
0.013090283 -0.050494671 0.030927971 26
0.014217049 -0.049937308 0.030956134 539
0.015353352 -0.049398065 0.030988261 278
0.016473711 -0.048829377 0.031013861 19
0.017588317 -0.048250198 0.031037137 275
0.018722564 -0.047708094 0.031068578 268
0.019290626 -0.047439039 0.031084731 3030616
0.020399183 -0.046848774 0.031105533 6583184
0.021522552 -0.046286881 0.031132579 5464443
0.022665441 -0.045762718 0.03116788 5596543
0.023806185 -0.045234978 0.031202376 6055551
0.024937719 -0.044690013 0.031233072 6055553
0.026073217 -0.044153154 0.031265512 5792892
0.027189463 -0.043579161 0.031289816 6056329
0.028294414 -0.042983174 0.031309292 6056066
0.028843731 -0.042678952 0.031317681 6187652
0.029926509 -0.042038977 0.03132759 4148847
0.031001776 -0.041383684 0.031334177 5728386
0.03207019 -0.040714085 0.031337708 6714774
0.033149421 -0.040065408 0.031345814 1061
0.034207255 -0.039373159 0.031344488 288
0.035257638 -0.038664818 0.031339735 294
0.036324918 -0.037989736 0.031342238 542
0.037402123 -0.037334204 0.031349003 790
0.037916571 -0.036956728 0.031341657 271
0.038986325 -0.036284626 0.03134492 533
0.040070236 -0.035641074 0.031354353 533
0.041153193 -0.034995079 0.031363294 15
0.042218685 -0.034312069 0.031364307 9
0.04330036 -0.033662081 0.031372458 273
0.044382691 -0.033012927 0.031380817 279
0.04544875 -0.032328844 0.031381711 287
0.046536446 -0.031689823 0.031392306 26
0.047077954 -0.031365216 0.031396523 1581374
0.048152328 -0.030696929 0.031400874 4674162
0.010834008 -0.051562846 0.029600859 17
0.011990041 -0.051058471 0.029641002 25
0.013121903 -0.050510168 0.029671267 65819
0.014251769 -0.049958527 0.029700771 26
0.015374392 -0.049393833 0.02972731 24
0.016496062 -0.048827529 0.029753521 24
0.017627656 -0.04828012 0.02978389 277
0.018751055 -0.047717631 0.029810891 7
0.019321322 -0.047452688 0.029828027 4082015
0.020444334 -0.046889961 0.029854953 6517134
0.021567732 -0.046328187 0.029882073 5201525
0.022712111 -0.045806944 0.029918179 5727875
0.023854077 -0.045281708 0.029953331 6186369
0.024975479 -0.044717252 0.02997981 6449542
0.026112527 -0.044183433 0.030013025 5067888
0.027230591 -0.043613076 0.030038178 5660542
0.028336674 -0.043019354 0.030058131 5333368
0.037430257 -0.037342131 0.030090347 5529457
0.037942618 -0.036960423 0.030081898 5463666
0.03902936 -0.03632319 0.030092582 4936803
0.040090948 -0.035633564 0.030091912 4804706
0.041154712 -0.034947515 0.030092031 4935263
0.042237103 -0.034299493 0.030100465 4935265
0.043319225 -0.033650339 0.03010866 4343391
0.044401973 -0.0330019 0.03011708 3882842
0.045469075 -0.032319784 0.030118212 3751515
0.046569169 -0.031707048 0.030134395 2240587
0.047097951 -0.031355262 0.030132681 4083052
0.048171103 -0.030684233 0.030136302 4147051
0.010830969 -0.051536143 0.028964594 15
0.012007296 -0.051047564 0.028378204 26
0.0131585 -0.050534844 0.028416604 285
0.014274329 -0.049957216 0.028440326 24
0.015413404 -0.049423099 0.028473839 24
0.016535968 -0.048858523 0.028500468 24
0.017655104 -0.04828769 0.02852568 197138
0.018780917 -0.047729731 0.028553754 266
0.019368678 -0.047497928 0.028578386 4738664
0.020492822 -0.046937466 0.028605878 6318983
0.021601737 -0.046348095 0.028626874 5267065
0.02276203 -0.045857489 0.028669968 5398651
0.023893684 -0.045312524 0.028700858 6317955
0.02502957 -0.044776142 0.028733656 5858432
0.026166946 -0.044243157 0.028767169 5266297
0.027285695 -0.04367435 0.028792679 6319503
0.037976831 -0.036980748 0.02882576 2238528
0.039061904 -0.036340177 0.02883561 1516589
0.040121913 -0.035647213 0.02883397 2305602
0.041184276 -0.034958243 0.02883327 2502729
0.042266667 -0.034310102 0.028841555 2700623
0.043349892 -0.033663273 0.028850168 3358549
0.044433653 -0.03301692 0.0288589 3556180
0.045501739 -0.03233695 0.028860316 4214109
0.046602011 -0.031724572 0.028876543 3754847
0.047132254 -0.031375825 0.028875381 5202812
0.04821679 -0.030729234 0.028884172 3094613
0.010870636 -0.051566422 0.027710855 15
0.012033552 -0.051074505 0.027754128 26
0.01317054 -0.050535679 0.027786657 28
0.014303356 -0.049989522 0.027817547 26
0.015443414 -0.049457252 0.027851537 26
0.016566277 -0.048893392 0.027878344 278
0.017687201 -0.048326075 0.027904361 10
0.01827538 -0.048094749 0.027929172 5
0.019402802 -0.047540367 0.027958065 4804716
0.020544499 -0.046990991 0.027358294 6517132
0.021667123 -0.046428025 0.02738525 5004154
0.022815615 -0.045915008 0.027423471 5530237
0.023948342 -0.045372307 0.027454972 6252930
0.025085956 -0.044839442 0.027488649 5661822
0.026222318 -0.044304729 0.027521893 4741491
0.027340561 -0.043735087 0.027547255 5662335
0.039089054 -0.036346018 0.027576119 2568774
0.040148079 -0.035651028 0.027573839 2963542
0.041209906 -0.034960866 0.027572677 2241361
0.042292327 -0.034312665 0.027580842 1978452
0.043376774 -0.03366828 0.027589872 1715791
0.044460595 -0.033022046 0.027598545 1518665
0.045543611 -0.032373548 0.027606726 1977678
0.046630561 -0.031732857 0.02761665 1058389
0.047162354 -0.031387448 0.027616099 3887488
0.048247188 -0.030741394 0.027624905 2503244
0.010906994 -0.051590621 0.026455775 131093
0.012053013 -0.05106771 0.026492134 30
0.01321131 -0.050568044 0.026533782 28
0.021698892 -0.046466231 0.026764125 6253192
0.022850275 -0.045958877 0.026803717 5859715
0.023985535 -0.045421243 0.026836395 5924994
0.025125384 -0.044892848 0.02687116 6056580
0.026262581 -0.044359982 0.026904866 5464956
0.040164948 -0.035635531 0.026309326 1253700
0.041245252 -0.034983575 0.026316509 1581637
0.042327821 -0.034335732 0.026324645 2043471
0.043412447 -0.033691704 0.026333645 1912142
0.044496536 -0.033046007 0.026342317 1319746
0.04557988 -0.032398283 0.026350543 2042959
0.046667248 -0.031758547 0.026360586 1584476
0.047199547 -0.031414211 0.026360199 4347782
0.048284978 -0.030769467 0.026369154 1712443
0.010926515 -0.051583946 0.025193572 26
0.021741778 -0.046503186 0.025513038 3819888
0.022895485 -0.046000361 0.025553837 4281207
0.024032921 -0.045466959 0.025587603 5727875
0.025173098 -0.044939399 0.025622666 5726846
0.040202647 -0.035663128 0.025054395 2702179
0.04128468 -0.035014749 0.025062263 3424368
0.042368948 -0.034370542 0.025071084 2504549
0.043455213 -0.03373009 0.025080785 2702439
0.044539809 -0.033085525 0.025089607 2834025
0.045623779 -0.032439172 0.025098011 2437724
0.046711773 -0.031800866 0.025108278 2439267
0.047244847 -0.031458259 0.025108144 5070984
0.048331082 -0.030815363 0.025117427 528419
0.022914112 -0.045990765 0.024292246 6056331
0.024062127 -0.045477688 0.02433081 6253445
0.025185049 -0.044916689 0.024358302 6253445
0.040241241 -0.035717726 0.024436206 464966
0.041326165 -0.035075605 0.024445415 924749
0.042413145 -0.034437358 0.024455532 1188435
0.043482274 -0.033761084 0.024457082 1648988
0.044567317 -0.033117652 0.024466053 1978466
0.045668513 -0.032481909 0.023846 1317703
0.046201944 -0.032140374 0.023846 1514564
0.022948772 -0.046012044 0.023037702 4806516
0.024093211 -0.045492053 0.023074836 5989760
0.025211036 -0.04492116 0.023100093 5858687
0.040273458 -0.035734057 0.023178846 2502480
0.041361809 -0.03509903 0.023189574 2897498
0.042452067 -0.034467578 0.023201138 2043218
0.043542743 -0.033836663 0.02321285 2307154
0.044612855 -0.033161938 0.023214594 1517638
0.045699805 -0.032522142 0.023224324 1975883
0.046235502 -0.032185555 0.023225397 1843780
0.024116874 -0.045492113 0.021815479 6514821
0.025242418 -0.044936001 0.021844268 6383495
0.040294081 -0.035726249 0.021915883 6383235
0.041385978 -0.035098553 0.021928221 6451341
0.042479634 -0.034474075 0.021941334 6781074
0.043573648 -0.033850074 0.021954551 6517642
0.044648558 -0.033185482 0.021958441 6451074
0.045739353 -0.032553852 0.021969959 6975885
0.046277851 -0.032223165 0.021972314 6778243
0.024165273 -0.045539796 0.020567358 6383236
0.025275588 -0.044954419 0.020589262 4279921
0.04031232 -0.035713613 0.020651698 805
0.041407794 -0.035093129 0.020665646 1311
0.042504787 -0.034475565 0.020680279 1051
0.043602049 -0.03385824 0.020695001 1060
0.044680297 -0.033200622 0.02070038 803
0.04578954 -0.032608092 0.020720854 806
0.046315193 -0.032250226 0.020716846 1314
0.025243789 -0.044846833 0.019304127 6188428
0.040346563 -0.035734057 0.019395143 4804717
0.041428924 -0.035086334 0.019402638 4936303
0.042529285 -0.034475625 0.019418836 4870507
0.043647021 -0.033901274 0.019443572 5133168
0.044726998 -0.033247352 0.019449681 5132917
0.045824021 -0.032629073 0.019464135 4672877
0.025189877 -0.04469645 0.018008143 6320266
0.040352076 -0.035695136 0.018124506 6448767
0.04145655 -0.035093009 0.018142715 7040388
0.042560756 -0.034490347 0.01816079 6777983
0.043680459 -0.03392005 0.018186539 6646651
0.044766545 -0.033279061 0.01819554 6909829
0.045867831 -0.032669783 0.01821208 6844547
0.025185823 -0.044642568 0.016734913 5990788
0.040413439 -0.035771668 0.016881272 262188
0.041518688 -0.035171449 0.016899914 131114
0.042623639 -0.034570634 0.016918376 658742
0.043728411 -0.033969283 0.016936734 1250873
0.044815898 -0.033331394 0.01694639 856875
0.045363009 -0.033019364 0.016952872 594216
0.025204182 -0.044655204 0.016107857 6056581
0.040460736 -0.035819113 0.015631258 5329016
0.04156664 -0.035220444 0.015650243 5461884
0.042672276 -0.034621179 0.015669048 4609135
0.043777674 -0.034021258 0.015687719 4477284
0.044866085 -0.033385515 0.015697792 3951707
0.045413613 -0.033074439 0.015704468 3425364
0.025218666 -0.044637322 0.014843151 6056834
0.040509552 -0.035869718 0.014382139 267836
0.041616052 -0.035272479 0.014401436 267585
0.042722195 -0.034674346 0.014420524 334910
0.04382807 -0.034075677 0.014439464 661824
0.044916987 -0.033441126 0.014449701 661054
0.045464873 -0.033130884 0.01445654 858433
0.025231302 -0.044615865 0.013577342 6056580
0.026337475 -0.044020355 0.013596922 5728386
0.039440542 -0.03651917 0.013744935 2505060
0.040547997 -0.035924137 0.013764754 3032173
0.041655004 -0.03532809 0.013784304 3295094
0.042761624 -0.034731209 0.013803676 2505574
0.043867975 -0.034133732 0.013822898 2963817
0.04495737 -0.033500433 0.013833389 2699618
0.045505553 -0.033190966 0.013840407 2962788
0.025236666 -0.044580281 0.012307853 6252932
0.026345134 -0.043989062 0.012328506 6056580
0.026914269 -0.043722451 0.012346089 5925507
0.028006583 -0.043099642 0.012358829 6451592
0.029096663 -0.042472184 0.012370437 6450563
0.030213684 -0.041897655 0.012395263 5990263
0.031314462 -0.041290998 0.012412086 1911355
0.032417089 -0.040687919 0.012429759 1583177
0.0335325 -0.04011035 0.012453824 1715268
0.034586817 -0.039409637 0.012447298 1123658
0.035649449 -0.03872484 0.012444779 4414
0.036179006 -0.038378537 0.012442574 5955
0.037284613 -0.037780106 0.012461498 401224
0.038390011 -0.037181079 0.012480319 334660
0.039481521 -0.036553502 0.012492061 202305
0.04058972 -0.035960019 0.012512252 926027
0.041697383 -0.035365522 0.012532189 333637
0.042804658 -0.034770072 0.012551874 1122128
0.043911576 -0.034173846 0.012571394 1054793
0.045015007 -0.03357023 0.012589082 2041685
0.045563608 -0.033261895 0.012596339 1647181
0.03461948 -0.039426982 0.011190638 6124427
0.035686642 -0.038751304 0.011190221 5729417
0.036204964 -0.038382173 0.011182204 5795212
0.037324429 -0.037811935 0.011208162 5794699
0.038416386 -0.037185431 0.011220098 5465735
0.039521813 -0.036586404 0.011238888 5399939
0.04063043 -0.035993874 0.011259302 5202044
0.04173848 -0.035400212 0.011279449 4610174
0.042846113 -0.034805596 0.011299342 4083578
0.043953389 -0.034210265 0.011319056 4082549
0.045044482 -0.03358072 0.011330292 3753576
0.045593143 -0.033272386 0.011337519 4213611
0.046709061 -0.032695055 0.011361718 4673908
0.038452834 -0.037210405 0.0099650174 5924480
0.03955844 -0.036611795 0.0099838972 5924994
0.040667474 -0.03602016 0.010004535 6121857
0.041763127 -0.035400689 0.010018185 6451339
0.042871177 -0.034806907 0.010038286 5991300
0.043991476 -0.034238815 0.010064825 6582924
0.04508245 -0.033609033 0.010075927 6451338
0.04563126 -0.033301055 0.010083199 6056580
0.046734542 -0.032696962 0.010100737 7043729
0.038475901 -0.037207961 0.0087030083 5727616
0.039594948 -0.036636889 0.0087288469 6188167
0.040691257 -0.036018968 0.0087428242 5859455
0.041800171 -0.035427034 0.0087633729 5727615
0.042908639 -0.034834087 0.0087836981 5924480
0.044016659 -0.034240305 0.0088037848 5793409
0.044565827 -0.033933103 0.0088112354 5727618
0.045669317 -0.033329606 0.0088288933 5793409
0.046772748 -0.032725811 0.0088465065 7174547
0.044050157 -0.03425914 0.0075471252 6911120
0.044599295 -0.033951938 0.007554546 6647948
0.045702755 -0.033348382 0.0075721443 6845067
0.046806157 -0.032744527 0.0075897127 7567763
0.044064432 -0.034237683 0.0062801093 5001824
0.044613183 -0.033929646 0.0062872767 5133408
