# .PCD v0.7 - Point Cloud Data file format
VERSION 0.7
FIELDS x y z rgba
SIZE 4 4 4 4
TYPE F F F U
COUNT 1 1 1 1
WIDTH 1111
HEIGHT 1
VIEWPOINT 0 0 0 1 0 0 0
POINTS 1111
DATA ascii
-0.009108901 -0.033579588 0.036161229 7
-0.0085059404 -0.034737289 0.036185279 12
-0.0078981519 -0.035892665 0.036208376 24
-0.0073302984 -0.037066698 0.036239371 24
-0.0066867471 -0.038205266 0.036255345 131345
-0.0060284734 -0.039337099 0.036268428 21
-0.0053116679 -0.040442109 0.036269963 28
-0.0046742558 -0.041584045 0.036287218 288
-0.0040365458 -0.04272598 0.036304414 28
-0.0036959052 -0.043287009 0.036308721 28
-0.002986908 -0.044396788 0.03631191 26
-0.0023117661 -0.045522213 0.036321789 131093
-0.0016446114 -0.046651512 0.036333278 26
-0.00096172094 -0.047774017 0.036341682 131360
-0.00025886297 -0.048887908 0.036346212 34
0.00045138597 -0.049998939 0.036349326 37
0.0011447668 -0.051117808 0.036355808 30
-0.045453906 0.032054931 0.034470573 65554
-0.044937074 0.030845046 0.034512982 529
-0.044362903 0.029670626 0.034543112 10
-0.043778837 0.028502405 0.034571096 131598
-0.04319787 0.027332455 0.034599751 10
-0.042659402 0.026137084 0.034637421 8
-0.042389214 0.025540143 0.034656033 262
-0.041823983 0.024361402 0.034687951 7
-0.041250408 0.023187846 0.034718081 7
-0.040685952 0.022009104 0.034750119 20
-0.04015857 0.020808756 0.034789979 275
-0.039618134 0.019616485 0.034827024 65541
-0.039050937 0.018440247 0.034858406 65542
-0.038495302 0.017257512 0.034892201 65541
-0.037920713 0.016086102 0.034921944 4
-0.03762424 0.015505761 0.034934893 4
-0.036978543 0.014375567 0.034949675 768
-0.03631717 0.013254225 0.034961194 512
-0.035650909 0.012135416 0.034971714 0
-0.034982562 0.011017591 0.034981802 4
-0.03429389 0.0099110007 0.034987673 66304
-0.033536077 0.0088430047 0.034979135 512
-0.032807767 0.0077577829 0.034976825 0
-0.032066107 0.0066794455 0.034971789 66048
-0.031319976 0.0056029558 0.034965873 1024
-0.030786693 0.0051534772 0.034929603 1024
-0.029924512 0.0041398406 0.034899712 1024
-0.029145837 0.0030790269 0.034887284 768
-0.028359413 0.0020216405 0.034873322 4
-0.027596056 0.0009508431 0.034864217 262
-0.026848137 -0.00014108419 0.034203395 1777414
-0.026094317 -0.001218468 0.034196272 0
-0.02535665 -0.0023051798 0.034192547 256
-0.024579167 -0.0033711493 0.034180641 1579522
-0.024182081 -0.0038999319 0.034172982 1776911
-0.023499489 -0.0050176084 0.03418082 256
-0.022892714 -0.0061757565 0.034204364 2171909
-0.022243083 -0.0073112547 0.034219041 855558
-0.021605074 -0.0084530413 0.034236133 4
-0.020983577 -0.0096035302 0.034256652 2
-0.020361423 -0.010753721 0.034277022 2
-0.019753039 -0.011911064 0.034300238 66048
-0.019150555 -0.013071388 0.034324631 2436106
-0.01889205 -0.013673544 0.034345612 3029265
-0.018316209 -0.014847338 0.034375474 4146974
-0.017745554 -0.016023606 0.034406379 3225112
-0.017173767 -0.017199039 0.034437001 256
-0.016603649 -0.018375129 0.034467965 2501389
-0.015993237 -0.019530714 0.034490675 3491092
-0.015474856 -0.020732373 0.034532145 2700298
-0.014905632 -0.021908194 0.034563199 3685924
-0.014343321 -0.023087263 0.034595653 65792
-0.014081895 -0.023686469 0.034615889 197120
-0.013518631 -0.024864644 0.034648106 3094039
-0.012960851 -0.026045233 0.03468141 256
-0.012410462 -0.02722919 0.034716189 0
-0.011836052 -0.028401136 0.034746081 66048
-0.011251628 -0.029568106 0.034773931 1712640
-0.010686159 -0.030744046 0.034805581 3885085
-0.01011771 -0.031918287 0.034836605 4343854
-0.009530127 -0.03308323 0.03486377 132615
-0.0092374682 -0.033666164 0.034877568 461329
-0.0086343288 -0.034823537 0.034901574 132112
-0.0080242157 -0.035977602 0.034924194 29
-0.0074550509 -0.0371508 0.034955025 26
-0.0068057775 -0.038286418 0.034969762 26
-0.0061418414 -0.039415419 0.034981608 26
-0.0054212809 -0.040518492 0.03498216 29
-0.004782021 -0.041659385 0.034998968 30
-0.0041424632 -0.042800248 0.035015732 28
-0.0037998557 -0.043360293 0.035019591 26
-0.0030894876 -0.044469237 0.035022289 278
-0.0024145842 -0.045594633 0.035032079 17
-0.0017476082 -0.046723843 0.035043478 65817
-0.0010650754 -0.047846317 0.035051808 285
-0.00036251545 -0.048960149 0.035056204 30
0.00034749508 -0.05007109 0.035059169 36
0.0010443926 -0.051188231 0.035064757 65821
-0.045572698 0.031959265 0.033188447 24
-0.045013368 0.030775666 0.033221856 277
-0.044435918 0.029603332 0.03325136 15
-0.043848515 0.028437257 0.033278704 12
-0.043299854 0.027247965 0.033314347 527
-0.04272759 0.026073158 0.033344895 12
-0.042456567 0.025476754 0.033363402 12
-0.041890919 0.02429837 0.033395335 529
-0.041319013 0.02312395 0.033425897 65805
-0.040757 0.021943897 0.033458561 278
-0.040204287 0.020758629 0.033493176 277
-0.039691091 0.019550413 0.033536211 65542
-0.039128661 0.018371522 0.03356868 65805
-0.038571656 0.017189711 0.033602282 65541
-0.037998676 0.016017497 0.033632457 0
-0.037703037 0.015436769 0.033645585 65536
-0.037039578 0.014316976 0.033656538 4147746
-0.036403596 0.01318115 0.033673331 2305300
-0.03574276 0.01205942 0.03368485 256
-0.03507936 0.010938942 0.033695847 5
-0.034394562 0.0098303258 0.033702388 4607780
-0.033641219 0.008760035 0.033694446 2042378
-0.032916307 0.0076730847 0.033692583 66560
-0.032175958 0.0065942407 0.033687532 3948320
-0.031737983 0.0060923696 0.033670768 4672807
-0.030890822 0.005071789 0.03364335 3425561
-0.030113876 0.0040112138 0.033630803 5398573
-0.029231727 0.0030077398 0.033596277 4146968
-0.028438389 0.0019543171 0.033580497 512
-0.027667105 0.00088799 0.033569381 3355943
-0.0268085 -0.00013163686 0.03354013 5067306
-0.026057243 -0.0012105107 0.033533394 0
-0.025324106 -0.0022997558 0.033530504 256
-0.02460897 -0.0033992529 0.033531427 5527603
-0.024206102 -0.0039249659 0.033522472 2895897
-0.023522675 -0.0050421357 0.033530042 131840
-0.0228737 -0.0061779022 0.033544838 4541213
-0.022265196 -0.007335186 0.033568025 329472
-0.021634102 -0.0084928274 0.032930911 0
-0.021012127 -0.0096430779 0.03295131 512
-0.020389259 -0.010792851 0.032971516 3750678
-0.019781828 -0.011950672 0.032994941 5461294
-0.019181728 -0.013112217 0.033019871 2171659
-0.018929362 -0.013717502 0.033042207 1118208
-0.018363535 -0.014896363 0.033074215 1182208
-0.017803788 -0.016078115 0.033107474 131584
-0.017286301 -0.017281026 0.033149391 66048
-0.016682088 -0.01843968 0.033173397 6118687
-0.016123831 -0.019621372 0.033206865 2369280
-0.015617549 -0.020828784 0.033250973 1182976
-0.015009403 -0.021984965 0.033274129 512
-0.014452636 -0.023166567 0.033307821 66048
-0.014196455 -0.023768246 0.033329204 5131553
-0.013635993 -0.024947584 0.033362091 4934950
-0.013080955 -0.026129305 0.033396065 256
-0.012534142 -0.027314782 0.033431679 5
-0.011959851 -0.02848655 0.03346166 5856305
-0.011376381 -0.029653728 0.033489734 4080914
-0.010813594 -0.030830711 0.033522025 1024
-0.01024586 -0.032005072 0.033553272 855299
-0.009657383 -0.033169299 0.033580273 262
-0.0093668103 -0.033753127 0.033594519 12
-0.0087639093 -0.034910381 0.033618584 20
-0.0081548691 -0.036064655 0.033641398 287
-0.0075845718 -0.037237048 0.03367205 26
-0.0069326758 -0.038371235 0.033686191 26
-0.0062639117 -0.039497763 0.03369692 278
-0.005541265 -0.040599644 0.033696815 31
-0.0049027205 -0.041740656 0.033713713 288
-0.0042626262 -0.042881042 0.033730298 36
-0.0039194822 -0.043440729 0.033733949 65567
-0.0032096505 -0.044549704 0.033736542 24
-0.0025364757 -0.045675635 0.033746541 24
-0.001871109 -0.046805322 0.033758134 28
-0.0011909604 -0.047928631 0.033766776 65567
-0.00049060583 -0.049043238 0.033771411 287
0.00021666288 -0.050155163 0.033774704 290
0.00091439486 -0.051271677 0.033779949 21
-0.045648456 0.031890035 0.031897336 15
-0.045088053 0.03070721 0.03193064 10
-0.044509888 0.029535502 0.03196004 65550
-0.043955624 0.028349489 0.031994641 9
-0.04337132 0.027181894 0.03202267 13
-0.042800665 0.026006252 0.032053635 275
-0.042529285 0.025410175 0.032072142 272
-0.041963518 0.02423197 0.032104149 7
-0.041420341 0.023040563 0.032141015 10
-0.040858388 0.021860689 0.032173768 20
-0.040280521 0.020690441 0.032203078 537
-0.039748311 0.01949355 0.032242209 4
-0.039211035 0.018300056 0.032280207 2
-0.038655818 0.017117381 0.032314315 4
-0.038086057 0.015943438 0.03234525 66048
-0.037793159 0.01536122 0.032358989 2039305
-0.037134171 0.014239013 0.032370746 5461533
-0.036503375 0.013100415 0.032388598 263936
-0.035848141 0.011975676 0.032401204 261
-0.035189927 0.010852456 0.0324132 525568
-0.034507811 0.0097425282 0.032420099 4935193
-0.033811629 0.0086402297 0.032424048 1844480
-0.033036351 0.0075819492 0.032411173 4080914
-0.032297432 0.0065025091 0.032406151 2304523
-0.03185904 0.0060010254 0.032388985 133376
-0.031003654 0.0049852133 0.032359302 66560
-0.030218422 0.003929466 0.032344639 4409126
-0.029323161 0.0029334128 0.032306731 5593624
-0.028522432 0.0018841922 0.032288983 1280
-0.027742565 0.00082269311 0.032275736 6447913
-0.026969314 -0.00024315715 0.03226395 1711104
-0.026108027 -0.001262188 0.032233685 256
-0.025451422 -0.00239259 0.032246679 4869172
-0.024647057 -0.0034439862 0.032228574 5000992
-0.024301052 -0.0040000677 0.032231361 592640
-0.023605406 -0.0051105917 0.032236233 4210189
-0.022948384 -0.0062419474 0.032249257 4803866
-0.022290885 -0.0073732436 0.032262176 768
-0.021645784 -0.0085112453 0.032277703 256
-0.021061003 -0.0096809268 0.032305881 856576
-0.020436108 -0.010829538 0.032325655 5000732
-0.01982832 -0.01198709 0.03234899 2566150
-0.019230962 -0.013149977 0.032374516 768
-0.018947899 -0.013739407 0.032390505 196864
-0.018390715 -0.014922678 0.032424375 524288
-0.017894626 -0.016149253 0.031815514 512
-0.017346442 -0.017336458 0.031851262 4013865
-0.016752541 -0.018500179 0.031877413 6118677
-0.016204059 -0.019686669 0.031913027 4999954
-0.015705347 -0.020897746 0.031958953 4604455
-0.015153766 -0.022081941 0.031993836 65792
-0.014604509 -0.023266971 0.032029167 5131050
-0.014308274 -0.023848683 0.032042339 5855515
-0.013752639 -0.025030166 0.032076344 658432
-0.013251781 -0.026238233 0.032121599 0
-0.01271081 -0.027426183 0.032158524 855570
-0.012089193 -0.028574646 0.032178804 5791028
-0.011508703 -0.029742986 0.032207534 5658898
-0.010947526 -0.030920476 0.032240242 3620360
-0.010380805 -0.032095075 0.032271773 66048
-0.010099411 -0.032683194 0.032287925 9
-0.0095021129 -0.033842891 0.032313153 278
-0.0088999271 -0.035000235 0.032337353 278
-0.0082892776 -0.036153495 0.032359838 26
-0.0077146888 -0.037323624 0.032389671 24
-0.0070589185 -0.038455755 0.032402918 277
-0.0063877106 -0.039580882 0.032413021 196886
-0.0057153106 -0.04070574 0.0324229 28
-0.0050802231 -0.041847974 0.032440424 30
-0.0047486424 -0.042412698 0.032446325 288
-0.0040430427 -0.043522954 0.032449514 30
-0.0033854246 -0.044655353 0.032462493 24
-0.0027143359 -0.045781881 0.032472774 30
-0.0019952059 -0.04688707 0.032473311 34
-0.0013167262 -0.048010916 0.032482162 33
-0.00061613321 -0.049125195 0.032486558 288
9.1314316e-05 -0.050236791 0.032489598 288
0.00079011917 -0.05135262 0.032494441 20
-0.04571563 0.031826079 0.030604601 23
-0.045157194 0.030642182 0.030638456 18
-0.044576228 0.029472291 0.03066729 20
-0.044017673 0.02828896 0.030701086 23
-0.043431342 0.027122736 0.030728713 278
-0.042886674 0.025931567 0.030765474 19
-0.042612672 0.02533716 0.03078346 18
-0.042018533 0.024176061 0.030809358 272
-0.041473091 0.022986144 0.030845851 20
-0.040911019 0.021806389 0.030878693 21
-0.040334582 0.020635396 0.030908391 24
-0.039802134 0.019438744 0.030947641 65803
-0.039265454 0.018244982 0.030985922 4
-0.038714051 0.017060161 0.031020969 65795
-0.038146615 0.015884995 0.0310525 197632
-0.037856281 0.015301317 0.03106682 4408595
-0.037201285 0.014176905 0.031079352 4080914
-0.036575973 0.013035297 0.031098306 256
-0.035925567 0.011907935 0.031111866 65803
-0.035271823 0.010782301 0.031124726 4276762
-0.034594178 0.0096700191 0.03113243 3355917
-0.033899486 0.0085670054 0.031136513 2171136
-0.033186555 0.007473886 0.031136692 5264407
-0.032386899 0.0064287186 0.031118304 132096
-0.031950116 0.0059264004 0.031101197 66055
-0.031090438 0.0049131811 0.031070054 132097
-0.030301929 0.0038593709 0.031054318 5658421
-0.029396236 0.0028691888 0.031013563 2566912
-0.028590858 0.0018226504 0.030994415 1712900
-0.027810395 0.00076159835 0.030980676 5856796
-0.026925266 -0.00024339557 0.03094469 66048
-0.026164889 -0.0013171732 0.030935422 66048
-0.02542311 -0.0024016201 0.030930161 6052904
-0.024700999 -0.0034972429 0.030929178 197632
-0.024357677 -0.0040547252 0.030932456 790016
-0.02365911 -0.0051635802 0.030936524 5591832
-0.022998214 -0.0062927902 0.030948609 1974016
-0.022334039 -0.0074205101 0.030960038 3225110
-0.021682918 -0.0085552633 0.030974224 2567962
-0.021096408 -0.009724021 0.031002104 4935696
-0.020466864 -0.010870218 0.03102088 4737295
-0.019856513 -0.01202637 0.031043693 65792
-0.019261003 -0.01319021 0.031069651 725506
-0.01898253 -0.013781995 0.031086668 4805171
-0.018434167 -0.014969766 0.031122491 4740383
-0.01793921 -0.016184419 0.031169504 1024
-0.017402053 -0.017377079 0.031207591 5658675
-0.016816616 -0.018545032 0.031235546 4540166
-0.016324341 -0.019759655 0.031282976 3552772
-0.01579082 -0.020953029 0.031321719 3158038
-0.015245795 -0.022140294 0.031358019 66048
-0.014700651 -0.023327172 0.031394258 6447152
-0.014455557 -0.023934096 0.031418085 5395475
-0.013912857 -0.025134206 0.030800074 197120
-0.013365805 -0.026319295 0.030835912 196608
-0.012826324 -0.027507752 0.030873284 65792
-0.01225543 -0.028680593 0.030904084 1024
-0.011629224 -0.029826552 0.030923352 3423488
-0.011070967 -0.031005204 0.030956745 5856804
-0.010504782 -0.032179803 0.030988455 197379
-0.010223329 -0.032767802 0.031004652 13
-0.0096281171 -0.033928245 0.031030312 10
-0.0090264678 -0.035085559 0.031054631 18
-0.0084568858 -0.036257923 0.031085595 30
-0.0078347921 -0.037405461 0.031105682 30
-0.007174015 -0.038535058 0.031117767 278
-0.0064989924 -0.039658219 0.031126961 23
-0.005825758 -0.040782481 0.031136543 30
-0.0051906705 -0.041924477 0.031153992 30
-0.0048575997 -0.042488396 0.031159535 30
-0.0042055845 -0.043622911 0.031173512 26
-0.0034929514 -0.044730067 0.031175107 275
-0.0028224587 -0.045856655 0.031185359 24
-0.0021581054 -0.046986282 0.031196892 288
-0.0014816523 -0.048110664 0.031205967 31
-0.00072854757 -0.04920128 0.03119944 288
-2.2530556e-05 -0.050313324 0.03120257 36
0.00067836046 -0.05142805 0.031206787 24
-0.045769691 0.0317702 0.029309139 197156
-0.045208335 0.03058818 0.029342443 26
-0.044625044 0.02941978 0.029370859 24
-0.044063091 0.028238624 0.029403985 65567
-0.043475091 0.027073413 0.029431313 26
-0.042901278 0.025899857 0.029461756 539
-0.042626798 0.025305688 0.029479742 65819
-0.042058825 0.024128973 0.029511437 278
-0.041486859 0.022954881 0.029542238 535
-0.040926099 0.021774352 0.029575482 23
-0.040375471 0.02058813 0.029610947 65821
-0.03984344 0.019391268 0.029650465 131345
-0.03930831 0.018196642 0.029689252 10
-0.03875947 0.017010421 0.029724985 65793
-0.038501263 0.016407967 0.029746398 1446920
-0.037886798 0.015260279 0.029767692 5526550
-0.037255168 0.014122427 0.029785261 2632965
-0.036634088 0.012978464 0.029805124 65792
-0.035989165 0.011848062 0.029819787 67074
-0.035339177 0.010720402 0.029833347 5264938
-0.034665823 0.0096058249 0.02984184 132608
-0.033975184 0.0085006356 0.029846609 3224331
-0.033264577 0.0074063241 0.0298471 5330715
-0.032540977 0.0063188076 0.029844776 264448
-0.032115638 0.0058102906 0.029829875 329984
-0.031272173 0.0047883689 0.029801697 4606755
-0.030373991 0.003795594 0.029761791 4869406
-0.029460967 0.0028095543 0.029718831 66048
-0.028654099 0.0017639697 0.029698923 5791039
-0.027873099 0.00070330501 0.029684708 4935955
-0.027097762 -0.00036123395 0.029671788 197888
-0.026217818 -0.001369983 0.029636443 4803884
-0.025475085 -0.0024538636 0.029630721 3552784
-0.024751842 -0.0035488009 0.029629245 66560
-0.024414182 -0.0041092634 0.029633671 3883031
-0.023713231 -0.0052167773 0.029637054 5198625
-0.023049712 -0.006344527 0.029648468 131584
-0.022378147 -0.0074682832 0.029658213 262
-0.02172029 -0.0085994303 0.029670894 5
-0.021133482 -0.0097679794 0.029698744 5132568
-0.020499766 -0.010911942 0.029716611 5132054
-0.019886136 -0.012066424 0.029738739 1381376
-0.019290328 -0.013230056 0.029764667 2172424
-0.019015789 -0.013823867 0.029782593 5265197
-0.01847589 -0.0150159 0.029820353 2962692
-0.017993867 -0.01623711 0.029870361 856576
-0.017466307 -0.017434597 0.029910624 5921821
-0.016889632 -0.018606812 0.029940486 1974272
-0.016363382 -0.019804209 0.029980972 1907470
-0.015882134 -0.02102375 0.030030921 2
-0.015343964 -0.022214264 0.030068815 1447689
-0.015111148 -0.022827417 0.030095369 5065496
-0.014561892 -0.024011821 0.030130863 5000468
-0.01396656 -0.025173217 0.030156612 1578497
-0.013467193 -0.026381582 0.030202538 1774596
-0.01293087 -0.02757138 0.030240625 2104841
-0.012362361 -0.028745174 0.030271947 922368
-0.01174134 -0.029893368 0.030292258 4344345
-0.011185706 -0.031073064 0.030326232 4080410
-0.010621369 -0.032248288 0.030358359 131334
-0.010380626 -0.0328556 0.030383065 65550
-0.0097969174 -0.034033924 0.029756904 8
-0.0091944933 -0.035190523 0.029781044 277
-0.008581996 -0.036342353 0.029803097 24
-0.0079565048 -0.037488103 0.029822439 277
-0.0072917342 -0.038615555 0.029833585 533
-0.0066128969 -0.039736718 0.029841825 26
-0.0059399009 -0.040860891 0.029851317 287
-0.005304873 -0.042002708 0.029868722 31
-0.0049706697 -0.042566031 0.029873952 30
-0.0043177009 -0.04369989 0.029887661 282
-0.003657341 -0.044830531 0.029899836 17
-0.0029886961 -0.045957655 0.029910341 24
-0.0022734404 -0.047064096 0.02991122 28
-0.0015984774 -0.048188955 0.029920474 65821
-0.00084996223 -0.049281389 0.029914573 34
-0.00014454126 -0.050393462 0.029917628 34
-0.045815825 0.031719148 0.028012052 131102
-0.045252085 0.030538648 0.028044939 21
-0.044699132 0.02935186 0.02808021 21
-0.044102669 0.028191775 0.028105691 24
-0.043540478 0.027011067 0.028138861 278
-0.042965174 0.025838494 0.028169051 21
-0.042689025 0.025245398 0.028186724 20
-0.042094767 0.024084479 0.028212652 65548
-0.041522443 0.022910625 0.028243467 11
-0.040962517 0.021729678 0.028276995 21
-0.040412843 0.02054289 0.028312817 18
-0.039880097 0.019346535 0.028352335 5
-0.039348304 0.018150002 0.028392032 65803
-0.038784266 0.016972661 0.028424561 65795
-0.038545549 0.016358912 0.028450385 2171412
-0.03793329 0.015210003 0.02847217 3486991
-0.037304163 0.014070779 0.028490216 3618314
-0.036686659 0.01292482 0.028510854 3485722
-0.036045313 0.011792481 0.028526232 2368270
-0.035397053 0.010663927 0.02854009 3290140
-0.034726024 0.009548068 0.028548971 66054
-0.034037113 0.0084420443 0.028553948 1118469
-0.033327699 0.0073471665 0.028554454 3487506
-0.032604098 0.0062597394 0.028551906 4738843
-0.032178104 0.0057516396 0.028536588 5724968
-0.031330407 0.0047321618 0.028506994 3289873
-0.030546784 0.0036761165 0.028491512 512
-0.029628098 0.0026935935 0.02844663 65795
-0.028820038 0.0016489923 0.028426021 1775371
-0.027910948 0.00065854192 0.028383523 3750165
-0.027133465 -0.00040477514 0.028369784 3815190
-0.026361048 -0.0014716387 0.028357238 1448198
-0.025607288 -0.0025492907 0.028348818 260
-0.024776936 -0.0035865605 0.028323874 1250069
-0.024358511 -0.0041038394 0.028310731 2894614
-0.023741066 -0.0052559972 0.028332025 1908751
-0.02307564 -0.0063827038 0.028342932 131598
-0.022401869 -0.0075052679 0.028352082 5
-0.021739781 -0.0086342394 0.028363749 65805
-0.021104276 -0.0097773075 0.028381184 723968
-0.020518601 -0.010946393 0.028409362 2433286
-0.019905806 -0.012101293 0.028431684 3684374
-0.019314229 -0.0132671 0.028458551 3749649
-0.019045591 -0.013863921 0.028477803 3223823
-0.018517137 -0.015061826 0.0285182 512
-0.018049002 -0.016290039 0.028571427 2368299
-0.017531991 -0.017492771 0.028614148 2828811
-0.016964972 -0.018669784 0.028646156 2499079
-0.016447723 -0.019871593 0.028688729 3090967
-0.015930891 -0.021073133 0.028731361 65536
-0.015399039 -0.022266746 0.02877076 1907995
-0.015170395 -0.022881925 0.028798357 2697489
-0.014625609 -0.024068415 0.028834909 2696198
-0.014078975 -0.025253713 0.028871045 2762002
-0.013535976 -0.026440471 0.028907925 2957836
-0.013003647 -0.027632087 0.028947026 3616787
-0.012436211 -0.028806299 0.028978661 3026452
-0.01186347 -0.029977679 0.029009134 788992
-0.01130861 -0.031157494 0.029043391 2
-0.010745347 -0.032333016 0.029075816 65550
-0.010499597 -0.032937795 0.029099584 65550
-0.0099073052 -0.034099102 0.029125884 13
-0.0093041062 -0.035255104 0.02914986 23
-0.0086895823 -0.036405772 0.029171467 23
-0.008061707 -0.037550151 0.029190257 16
-0.0073929429 -0.038675547 0.029200494 17
-0.0067102909 -0.039794743 0.02920787 26
-0.0060364604 -0.04091832 0.029217094 287
-0.0054010749 -0.042059809 0.029234394 288
-0.046415329 0.032866538 0.027333468 278
-0.04584533 0.031689703 0.027365014 26
-0.045279503 0.030510515 0.027397454 278
-0.044724345 0.029325098 0.027432323 20
-0.044126511 0.028165877 0.027457505 278
-0.043536425 0.027002037 0.027484462 278
-0.043294251 0.026388317 0.027509794 21
-0.042710125 0.025221229 0.027538046 275
-0.0050754547 -0.042639852 0.028587028 30
-0.0044214129 -0.043773025 0.02860041 26
-0.0037596822 -0.044902861 0.028612182 24
-0.0030916333 -0.046030074 0.028622672 31
-0.0023794174 -0.047137678 0.028623968 287
-0.0017055869 -0.048262835 0.028633311 287
-0.0010102987 -0.049378753 0.028638214 38
-0.00030380487 -0.050490081 0.028640836 34
-0.042125762 0.024042934 0.026912823 65554
-0.041553259 0.022869229 0.026943669 13
-0.040994227 0.021687746 0.026977554 23
-0.040443122 0.020501882 0.027013153 24
-0.039911151 0.01930508 0.027053028 270
-0.039383411 0.018106222 0.027093813 272
-0.038823247 0.016926676 0.027127296 270
-0.038586259 0.016311944 0.027153671 13
-0.037976801 0.015161425 0.027176082 13
-0.037352324 0.014019608 0.027195141 5
-0.036739469 0.012871057 0.027216777 131598
-0.036070526 0.011754543 0.027225941 5
-0.035457015 0.010606259 0.027247459 269
-0.034788549 0.0094890594 0.027256772 539
-0.034101367 0.0083821416 0.027261972 15
-0.033393145 0.0072866976 0.027262524 131343
-0.032976687 0.0067737103 0.027249008 131598
-0.032242775 0.0056917667 0.027243972 460038
-0.031390429 0.0046749711 0.027212843 65792
-0.030603826 0.0036206543 0.027196333 5
-0.029813945 0.0025673211 0.027179196 7
-0.028866172 0.0015996695 0.02712737 527
-0.028079748 0.00054237247 0.027111202 65805
-0.027294576 -0.00051641464 0.027095392 5
-0.026394248 -0.0015137792 0.027054429 13
-0.0256387 -0.0025904477 0.02704531 131343
-0.025210321 -0.0031018853 0.027029723 9
-0.024380565 -0.0041399896 0.02700448 7
-0.023767769 -0.0052945912 0.027026772 269
-0.023027897 -0.0063818395 0.027021348 24
-0.022359431 -0.0075073838 0.027031526 11
-0.021759689 -0.0086692274 0.027056709 14
-0.021119297 -0.0098097622 0.027073041 15
-0.020538807 -0.01098153 0.027102411 65552
-0.019928217 -0.012137592 0.02712521 13
-0.019340813 -0.013305545 0.02715306 7
-0.019078135 -0.013905436 0.027173683 7
-0.018561959 -0.015109569 0.027216896 18
-0.018107653 -0.016344786 0.027273431 285
-0.017601669 -0.017553002 0.027318731 270
-0.017045319 -0.01873529 0.027353123 197138
-0.016537249 -0.019941568 0.027397886 65805
-0.016027331 -0.021146387 0.027442187 65801
-0.015502691 -0.022343397 0.02748327 9
-0.01527679 -0.022959858 0.027511626 9
-0.014737189 -0.024148732 0.027549446 269
-0.014193237 -0.025335133 0.027586266 270
-0.013652146 -0.026522607 0.027623683 7
-0.013161302 -0.02773419 0.027671799 65552
-0.012595177 -0.0289087 0.027703777 13
-0.012023628 -0.030080378 0.027734578 131345
-0.011433601 -0.031242967 0.027761415 529
-0.010903776 -0.032434225 0.027801052 24
-0.010618031 -0.033019781 0.027816415 24
-0.01002419 -0.034180105 0.027842417 24
-0.0094189048 -0.035334885 0.027865946 30
-0.0088009238 -0.036483705 0.027886778 288
-0.0081713796 -0.037627101 0.027905181 278
-0.0074986219 -0.03875044 0.02791445 529
-0.006813705 -0.039868385 0.02792117 24
-0.0061392784 -0.040991515 0.027930126 30
-0.0055034161 -0.042132586 0.027947262 28
-0.0051665902 -0.042694509 0.027951851 30
-0.0045129657 -0.043827653 0.027965248 26
-0.0038051605 -0.044936448 0.027967304 26
-0.0031390786 -0.046064436 0.027978137 66081
-0.0024750233 -0.047193617 0.027989447 288
-0.001850009 -0.04834041 0.028008923 288
-0.0011092424 -0.049435794 0.028004184 36
-0.00040268898 -0.050546885 0.028006658 34
-0.0475474 0.035203308 0.025960729 19
-0.046984017 0.034021795 0.025993943 11
-0.046447814 0.032823861 0.026033342 24
-0.045876026 0.031648159 0.026064575 26
-0.045308352 0.030470133 0.026096717 278
-0.044751346 0.029285878 0.026131272 20
-0.044179738 0.028110743 0.026162475 21
-0.043587923 0.026948065 0.026189074 28
-0.043318748 0.026350647 0.026208416 28
-0.042734325 0.025183737 0.026236668 278
-0.042140067 0.024022877 0.026262656 24
-0.041567683 0.022849113 0.026293576 28
-0.041009903 0.021666914 0.026327789 28
-0.040457487 0.020481825 0.026363179 288
-0.03992635 0.019284546 0.026403338 18
-0.039403319 0.018082947 0.026445255 270
-0.038866401 0.0168899 0.026484028 13
-0.038613081 0.016284704 0.026506796 1050
-0.038018703 0.015113831 0.025879726 1578
-0.037399411 0.013969034 0.025899917 19
-0.036764681 0.012833118 0.025916651 278
-0.036129713 0.011697203 0.02593334 534
-0.035518706 0.010547578 0.025955409 1314
-0.034852922 0.009428978 0.025965184 527922
-0.034167767 0.0083210468 0.025970653 396336
-0.033460855 0.007224977 0.025971293 543
-0.03304559 0.0067113638 0.025957808 536
-0.032312393 0.0056291521 0.025952652 14
-0.031563759 0.0045548677 0.025944144 132891
-0.030787766 0.0034950674 0.0259296 798
-0.029879093 0.0025075078 0.025885597 3160141
-0.029070556 0.0014636517 0.025864005 276
-0.028283596 0.00040709972 0.025847301 801
-0.027349174 -0.00057023764 0.025798008 789
-0.026440799 -0.0015631616 0.025754601 1056
-0.025683582 -0.0026388764 0.025744841 539
-0.025253594 -0.0031493902 0.025728613 1052
-0.024415433 -0.0041829646 0.025701076 1251895
-0.023807347 -0.0053400397 0.025724411 543
-0.023060143 -0.006423384 0.025717095 798
-0.022389352 -0.0075476468 0.025726661 66078
-0.021790922 -0.008710146 0.025752157 2501459
-0.021144152 -0.0098473132 0.025767043 806
-0.020566642 -0.01102066 0.025797129 806
-0.019955635 -0.012176454 0.025819868 803
-0.019678175 -0.012768835 0.025837362 800
-0.019110382 -0.013946772 0.025869533 800
-0.018602669 -0.015155196 0.025914803 808
-0.018159926 -0.016396254 0.025974214 199472
-0.017613471 -0.017583877 0.026010916 799
-0.017113984 -0.018794894 0.02605781 284
-0.016615033 -0.020005614 0.026104763 278
-0.016111732 -0.021213621 0.026150718 2369077
-0.015594065 -0.022413969 0.0261935 2173262
-0.015372336 -0.023032367 0.026222914 2567505
-0.014837861 -0.024223626 0.02626197 2699338
-0.014296472 -0.025411099 0.026299492 791341
-0.013794839 -0.026617676 0.026345566 800
-0.013267517 -0.027811199 0.026386023 806
-0.012703001 -0.028986305 0.026418433 549
-0.012135208 -0.030159563 0.026450112 66081
-0.011581898 -0.031339586 0.026484877 17
-0.011324763 -0.031938851 0.026506454 18
-0.010729849 -0.033098549 0.026532233 30
-0.010138214 -0.034259707 0.026558712 24
-0.0095319748 -0.035413861 0.026582062 26
-0.0089130402 -0.036561996 0.026602656 30
-0.0082806349 -0.037703842 0.026620388 65817
-0.0076050162 -0.038825661 0.026628911 278
-0.0069175363 -0.039942235 0.026634917 24
-0.0062433481 -0.041065276 0.026643798 65570
-0.0059145093 -0.041630685 0.026649997 288
-0.0052687526 -0.042767107 0.026664957 288
-0.0046153069 -0.043900192 0.026678324 26
-0.0039510727 -0.045028538 0.026689395 26
-0.0032863617 -0.046156883 0.026700392 65817
-0.0026222467 -0.047285706 0.026711538 287
-0.0019077659 -0.048392266 0.02671206 288
-0.0012167096 -0.049509674 0.026717559 34
-0.00050973892 -0.050620377 0.026719749 34
-0.047011793 0.033982009 0.024692625 272
-0.046473682 0.032785267 0.024731755 26
-0.045933306 0.031590253 0.024770334 19
-0.045361638 0.03041482 0.024801642 275
-0.044771552 0.029250741 0.024828732 13
-0.044199407 0.028075993 0.024859875 529
-0.043607473 0.026913375 0.024886504 277
-0.04333806 0.026316077 0.024905875 278
-0.042753696 0.025149167 0.024934202 21
-0.042184889 0.023973107 0.024966046 26
-0.041587293 0.022814393 0.024991304 539
-0.041030824 0.02163139 0.025025949 20
-0.040480256 0.020445228 0.02506189 287
-0.039949834 0.019247532 0.025102377 272
-0.039431751 0.018043041 0.025145635 8
-0.038900197 0.016846895 0.025185764 592664
-0.038649201 0.016240388 0.025209203 3291478
-0.038050473 0.01508376 0.025234029 924988
-0.037436903 0.013935745 0.025255516 1582910
-0.036807835 0.01279664 0.025273502 1384250
-0.036178768 0.011657447 0.025291473 726578
-0.035572112 0.010505438 0.025314525 2306379
-0.034909546 0.0093851388 0.025324956 1911624
-0.034226716 0.0082759559 0.025330871 1384512
-0.033523321 0.0071780384 0.025332198 2307152
-0.03311938 0.0066462755 0.024667934 2308951
-0.032477021 0.005513519 0.024682999 3425633
-0.031638741 0.0044893622 0.024653956 2174026
-0.030862868 0.0034296513 0.02463907 1315
-0.030082107 0.0023718178 0.02462317 2700370
-0.029279172 0.0013253391 0.024602368 2175047
-0.028352559 0.00034537911 0.02455397 1715533
-0.027559876 -0.00070878863 0.024535701 1519431
-0.026624024 -0.001686424 0.024485499 2637898
-0.025855899 -0.0027558506 0.024472937 1583670
-0.02530241 -0.0031999052 0.024428859 2175554
-0.024454951 -0.0042284429 0.024398759 2372676
-0.023851752 -0.0053880811 0.024423212 2767444
-0.023094475 -0.0064660311 0.024413362 2305853
-0.022420645 -0.0075886548 0.024422139 1301
-0.021757364 -0.0087170899 0.02443327 593965
-0.02116859 -0.0098846853 0.024460956 1121589
-0.020541131 -0.011032045 0.024480075 2239817
-0.019932508 -0.01218915 0.024503335 1978185
-0.019703865 -0.012806803 0.024531722 2044747
-0.019139171 -0.013986319 0.024564669 1584709
-0.018638551 -0.01519838 0.024611726 1322056
-0.018155754 -0.016418964 0.024662673 2637134
-0.017665327 -0.017635047 0.024711862 2900569
-0.017172992 -0.018849611 0.024760574 1911883
-0.016638875 -0.020042568 0.024800032 24
-0.016146004 -0.021255761 0.024848521 725028
-0.015635133 -0.022459447 0.024892971 1189449
-0.015419304 -0.023080766 0.024923876 1122627
-0.014892161 -0.024275571 0.02496469 2767192
-0.014392257 -0.02548337 0.02501142 860224
-0.01385659 -0.026673108 0.025050282 1188422
-0.013372064 -0.027887434 0.025100261 2109771
-0.012809992 -0.029063493 0.025133282 2702163
-0.01224637 -0.030238599 0.025165945 2698566
-0.011694849 -0.031419247 0.025201201 10
-0.011438489 -0.032018781 0.025223047 269
-0.01086992 -0.033190846 0.025254562 288
-0.010278523 -0.034351826 0.025281116 26
-0.0096483231 -0.035494387 0.025299236 15
-0.0090284944 -0.036641866 0.025319636 24
-0.0083946586 -0.037782848 0.025336996 24
-0.0077172518 -0.038903594 0.025344983 20
-0.007030189 -0.040020168 0.025350913 14
-0.0063564777 -0.041143209 0.02535975 288
-0.0060278773 -0.041708618 0.025365949 65567
-0.0053822398 -0.042844892 0.02538085 65831
-0.004727304 -0.043977082 0.025393784 30
-0.0040616989 -0.045104593 0.025404423 28
-0.003395617 -0.046232134 0.025415033 20
-0.0027285218 -0.047359437 0.025425419 65821
-0.0020565391 -0.048484772 0.025434777 31
-0.0013216138 -0.049582392 0.025430754 34
-0.00061243773 -0.050691962 0.025432274 65829
-0.046498239 0.032747477 0.023429886 278
-0.04595387 0.031554967 0.02346769 13
-0.045346797 0.030401111 0.023490891 275
-0.044787824 0.029218048 0.023525238 13
-0.044214904 0.028043747 0.023556322 10
-0.043622911 0.026881158 0.023582965 277
-0.04335326 0.026284009 0.023602381 277
-0.042766929 0.025118262 0.023630306 65550
-0.042196214 0.023943305 0.023661837 278
-0.041598856 0.022784442 0.023687184 277
-0.04104352 0.021600783 0.023722187 20
-0.040494442 0.020413697 0.02375862 26
-0.039964259 0.019215852 0.02379936 272
-0.039451301 0.018008351 0.023844004 4
-0.038925409 0.016808897 0.023885638 197654
-0.038676977 0.01620093 0.023909763 1382469
-0.038084269 0.015040845 0.023935989 4014947
-0.037477076 0.013889164 0.023958936 2830927
-0.036854386 0.012746453 0.023978338 3093588
-0.036233723 0.011602551 0.023998171 2372432
-0.035632193 0.010447711 0.0240224 2174527
-0.034973443 0.0093253255 0.024033606 2831176
-0.034295559 0.0082135201 0.024040475 2108231
-0.033597291 0.0071128011 0.02404277 1584199
-0.033261776 0.0065546632 0.024047002 1715785
-0.03254503 0.0054637194 0.024045154 3292505
-0.031707227 0.0044394135 0.024015963 2567755
-0.030932128 0.0033794343 0.024001062 68137
-0.030153453 0.0023205578 0.023985445 2370892
-0.029352069 0.0012733638 0.023964792 2897487
-0.028567731 0.00021600723 0.023948073 2109003
-0.027626634 -0.0007570982 0.023896158 2044233
-0.026842356 -0.0018286407 0.02322498 2435899
-0.026063561 -0.0028918684 0.023209661 2501174
-0.025356889 -0.0032534301 0.023130491 2895177
-0.024607539 -0.0043343604 0.023121983 2105653
-0.023900747 -0.0054385662 0.023123145 2369853
-0.023220599 -0.0065572858 0.023130313 1974568
-0.0224545 -0.0076310039 0.023118228 462368
-0.021787286 -0.0087573528 0.02312839 1843509
-0.021192908 -0.0099219978 0.023154885 3225425
-0.020563483 -0.011068285 0.023173511 3685976
-0.019953728 -0.012224853 0.023196563 3028557
-0.019728005 -0.012843996 0.023225754 3225936
-0.019118905 -0.014000654 0.023248911 2766155
-0.018624127 -0.015215784 0.023297548 2831694
-0.018197238 -0.016464949 0.023361206 2501690
-0.017665684 -0.017660141 0.023401514 2040887
-0.017183781 -0.01887998 0.023452803 3027541
-0.016704798 -0.020100653 0.023504674 541
-0.016220748 -0.021318167 0.023555338 3159638
-0.01571691 -0.022525221 0.023601577 1187909
-0.015506923 -0.023149371 0.023633942 1778503
-0.015024185 -0.024365962 0.02368474 2238779
-0.014491022 -0.025557131 0.023724347 725299
-0.013997078 -0.026767105 0.023772553 1075
-0.013477564 -0.027964056 0.023815051 398654
-0.012917459 -0.029140919 0.023848608 2240836
-0.012357593 -0.030317605 0.023882166 3225161
-0.011807203 -0.031498611 0.023917794 5
-0.011579573 -0.032111794 0.023946017 9
-0.010981977 -0.033269703 0.02397126 30
-0.010391057 -0.034430712 0.023997933 277
-0.0097585917 -0.035571992 0.024015516 131347
-0.009137094 -0.036718488 0.024035513 285
-0.0085010529 -0.037858248 0.024052337 28
-0.0078216791 -0.038977861 0.024059728 66071
-0.0071339607 -0.040093958 0.024065346 278
-0.0064599514 -0.041216671 0.024073988 31
-0.0061308146 -0.041781753 0.024080023 288
-0.0054412484 -0.042897731 0.024085313 288
-0.0047830939 -0.044028372 0.024097443 288
-0.0041579008 -0.045174122 0.02411674 197417
-0.0034899116 -0.04630062 0.024126798 65567
-0.0028188229 -0.047425985 0.024136201 30
-0.0021446943 -0.048550189 0.024144962 288
-0.0014105439 -0.049648017 0.024140835 288
-0.00070059299 -0.05075708 0.024141967 65829
-0.046562672 0.032685101 0.022137433 26
-0.045983493 0.031514078 0.022167191 24
-0.04537344 0.03036207 0.022189721 21
-0.0448125 0.029180259 0.022223711 10
-0.044211745 0.028022826 0.022248372 8
-0.043645561 0.026844561 0.02228111 12
-0.043347955 0.02626428 0.022294074 12
-0.042759955 0.025099456 0.022321686 8
-0.042186737 0.02392596 0.022352725 15
-0.041612387 0.022753358 0.022383466 24
-0.041057348 0.021569461 0.022418678 28
-0.040507317 0.020382941 0.022455037 33
-0.039975166 0.019186229 0.022495508 131094
-0.039467216 0.017975807 0.022541523 272
-0.038947165 0.016772956 0.022584692 197657
-0.038700938 0.016163677 0.022609442 1776449
-0.038132727 0.014989406 0.02264142 33
-0.037534535 0.013832659 0.022666425 854567
-0.036922812 0.012683719 0.022688329 28
-0.036286175 0.011549056 0.022704467 592927
-0.035691023 0.010390669 0.022730172 855596
-0.035037875 0.0092652142 0.022742555 288
-0.034364939 0.0081506968 0.022750422 17
-0.033673048 0.0070465803 0.022753954 461858
-0.03326422 0.0065295696 0.022741348 396322
-0.032624662 0.0053955317 0.022756934 278
-0.031790257 0.0043694973 0.022728026 33
-0.031018853 0.0033075809 0.022713616 288
-0.030243337 0.0022471845 0.022698343 132123
-0.029444516 0.0011987388 0.022677854 263976
-0.028512657 0.00022193789 0.02262722 395824
-0.02771765 -0.00083068013 0.022607833 1185080
-0.026923954 -0.0018848181 0.022588804 278
-0.025994301 -0.0028667152 0.022539094 14
-0.025417745 -0.0032982528 0.022488981 394533
-0.024547637 -0.004314512 0.022453025 23
-0.023952603 -0.0054783225 0.022479326 526629
-0.023170412 -0.0065429211 0.022463381 7
-0.022486091 -0.0076599121 0.022469595 280
-0.021813571 -0.0087834299 0.022478506 18
-0.021217108 -0.0099592209 0.021848783 287
-0.020580292 -0.011101693 0.021865726 19
-0.019964099 -0.012254894 0.021887332 22
-0.01968962 -0.012848914 0.02190572 21
-0.019127727 -0.01402995 0.021939546 16
-0.018640578 -0.015249014 0.021990135 14
-0.018222332 -0.016502589 0.022056133 275
-0.017697811 -0.017701298 0.022098184 17
-0.017224252 -0.018925339 0.022151649 812
-0.016755342 -0.020151019 0.022206038 283
-0.016280651 -0.021373123 0.022259071 546
-0.016092241 -0.022008359 0.022296488 1068
-0.015580654 -0.023211062 0.022341177 292
-0.015107572 -0.024432272 0.022394389 9
-0.014579296 -0.025625706 0.022435233 539
-0.014093161 -0.026839375 0.02248542 295
-0.01357621 -0.028037369 0.022528693 552
-0.0130198 -0.029215842 0.022563145 196887
-0.012464046 -0.030394316 0.022597715 1381153
-0.011916459 -0.031576455 0.022634074 65805
-0.011661172 -0.032176286 0.022656336 529
-0.011064649 -0.033334583 0.022681832 27
-0.010476768 -0.034496874 0.022709206 66070
-0.0098691583 -0.035649747 0.022732243 13
-0.0092456341 -0.03679508 0.022751734 25
-0.0086071491 -0.037933499 0.022767946 24
-0.0079272389 -0.039052665 0.022775084 17
-0.0072402954 -0.040168941 0.022780702 65567
-0.0065671206 -0.041291833 0.022789374 288
-0.0062364936 -0.04185614 0.022795022 66081
-0.0055420995 -0.042969733 0.022799104 288
-0.0048815608 -0.044099092 0.022810608 28
-0.0042111278 -0.04522416 0.022819966 287
-0.0035405159 -0.046349406 0.022829339 288
-0.0028645992 -0.047472507 0.022837564 65829
-0.0021876097 -0.048595428 0.022845581 288
-0.0014969707 -0.049712539 0.022850677 288
-0.00078678131 -0.050821334 0.022851557 65829
-0.046566367 0.032660186 0.020830736 288
-0.046014428 0.031472385 0.02086705 30
-0.045401812 0.030322015 0.020888954 24
-0.044838667 0.029141545 0.020922557 12
-0.044236898 0.027984709 0.020947009 9
-0.043644845 0.02682212 0.020973742 10
-0.043370008 0.0262281 0.0209921 10
-0.042779684 0.025064677 0.021019205 262
-0.042204082 0.023892581 0.021049783 7
-0.041627467 0.022721291 0.021080092 277
-0.041070998 0.021538258 0.021115124 26
-0.040520072 0.020352244 0.021151394 65567
-0.039986074 0.019156635 0.021191612 278
-0.039482176 0.017943829 0.021238804 18
-0.038966179 0.016738564 0.02128312 197905
-0.038741469 0.016116798 0.021313041 3225161
-0.038157284 0.014951855 0.021341369 793
-0.037566543 0.013790786 0.021368161 25
-0.036962926 0.012637287 0.021391943 280
-0.036372662 0.011476159 0.02141881 18
-0.035753369 0.010331661 0.021438926 2039358
-0.035106838 0.0092025697 0.02145274 1645378
-0.034441769 0.0080837607 0.021462291 32
-0.034063876 0.0075497627 0.021456569 286
-0.033352435 0.0064564049 0.021455437 281
-0.03262794 0.0053698719 0.021451369 20
-0.031885862 0.0042925775 0.021443263 35
-0.031119168 0.0032282472 0.021429583 294
-0.030347705 0.0021657646 0.021414876 27
-0.02955246 0.0011155903 0.021394804 30
-0.028775454 5.4568052e-05 0.021378994 791357
-0.027829468 -0.00091549754 0.021324545 1315896
-0.027036607 -0.0019699335 0.021305323 289
-0.026407063 -0.0023717582 0.021242395 283
-0.025510967 -0.0033725798 0.021199778 548
-0.024750173 -0.0044470727 0.0211882 292
-0.024032772 -0.0055453777 0.021186605 290
-0.023236215 -0.0066022277 0.021167025 19
-0.022541583 -0.0077136755 0.021170735 3423816
-0.02186054 -0.0088326037 0.021177575 530
-0.021171212 -0.0099475682 0.021182582 543
-0.020532131 -0.011088938 0.021199003 1447724
-0.01991272 -0.012240648 0.021219879 30
-0.019689679 -0.012861252 0.02124995 31
-0.019124985 -0.014040917 0.021283194 18
-0.018586397 -0.015233696 0.021322325 9
-0.018228829 -0.016518295 0.02140224 18
-0.01777339 -0.017764509 0.020804793 66850
-0.017254949 -0.018965721 0.020848349 3951464
-0.016795158 -0.020195991 0.020905122 3559269
-0.016372681 -0.021444142 0.020970225 3492956
-0.016146183 -0.022060275 0.020999297 2637388
-0.015640914 -0.023266047 0.02104561 3622239
-0.015134335 -0.024470627 0.021091565 3161160
-0.014653623 -0.025687426 0.021143302 4212827
-0.014170587 -0.026902467 0.021194428 4016232
-0.013654768 -0.028100908 0.021238148 3488605
-0.01309818 -0.029279113 0.021272674 16
-0.012543917 -0.030458182 0.021307677 278
-0.011996746 -0.031640381 0.021344274 21
-0.011740148 -0.032239527 0.021366328 20
-0.011142731 -0.033397257 0.021391645 539
-0.010555983 -0.034559935 0.021419317 65821
-0.0099472404 -0.035712153 0.021442086 287
-0.0093210936 -0.036856115 0.021460965 287
-0.0086793303 -0.037992865 0.021476403 26
-0.0080006123 -0.039112508 0.02148366 65821
-0.0073150396 -0.040229261 0.021489397 65568
-0.0066415071 -0.041351885 0.021497875 288
-0.0063089728 -0.041915238 0.021503031 287
-0.0056121349 -0.04302761 0.021506399 65827
-0.0049492717 -0.044155806 0.021517292 30
-0.00432235 -0.045300484 0.021536127 30
-0.0036019087 -0.04640305 0.021534368 28
-0.0029639602 -0.047543108 0.021550834 285
-0.0022829175 -0.048664033 0.021557808 24
-0.0015491247 -0.049761802 0.021553248 26
-0.00083953142 -0.050870806 0.021554053 65821
-0.00044536591 -0.051408112 0.021545857 66071
0.00022685528 -0.052534193 0.021554917 273
-0.046007931 0.031453669 0.019558012 131093
-0.045422792 0.030286431 0.019586474 66068
-0.044830799 0.029123515 0.019613311 10
-0.044257164 0.027949601 0.019644499 15
-0.043665051 0.026787013 0.019671276 131343
-0.043388069 0.026194274 0.019689202 131598
-0.042798042 0.025030673 0.019716442 266
-0.042220771 0.02385959 0.019746691 262
-0.041642368 0.022689342 0.019776657 7
-0.041107535 0.021493524 0.01981692 13
-0.040555894 0.020307958 0.019853175 278
-0.040021598 0.019112557 0.019893482 65552
-0.039519131 0.017898947 0.019941255 272
-0.039313972 0.017265469 0.01997599 9
-0.038767278 0.016078502 0.020013258 3489106
-0.038189292 0.014909953 0.02004309 2766664
-0.037605405 0.01374498 0.020071551 2502476
-0.037010431 0.012586534 0.020097375 3357268
-0.036433876 0.011417657 0.020127505 1909311
-0.035826266 0.010266632 0.020150334 2632259
-0.035187364 0.0091333389 0.020165861 2634569
-0.034575582 0.007984668 0.020187736 2767954
-0.034214497 0.0074413419 0.020185754 1847881
-0.033520639 0.0063384771 0.020188496 2307920
-0.032814801 0.0052419007 0.020188481 3425886
-0.031995535 0.0042078495 0.020162106 2570573
-0.031235695 0.0031399429 0.020149663 2637138
-0.030467331 0.002076 0.020135328 3621464
-0.029677212 0.0010232329 0.020116016 725800
-0.028905809 -4.0590763e-05 0.020101145 923454
-0.027963817 -0.0010125637 0.02004686 2896207
-0.027173102 -0.0020678639 0.020027727 2833226
-0.026697814 -0.0025527477 0.019999743 2571592
-0.025769472 -0.0035356581 0.019949019 2374995
-0.024863958 -0.0045322478 0.019903734 3031124
-0.024023354 -0.0055647492 0.019873515 3817560
-0.023326397 -0.0066744089 0.01987645 292
-0.02262187 -0.0077804923 0.019877732 3160382
-0.021927834 -0.0088924766 0.019881442 3094346
-0.021214247 -0.009994626 0.019880697 2896720
-0.020559132 -0.011127651 0.019893408 3093585
-0.0199278 -0.012273133 0.019911557 1910592
-0.019642472 -0.012861609 0.019927591 2503240
-0.019124031 -0.014065176 0.01997152 2174016
-0.018586636 -0.01525861 0.020011082 3489874
-0.018182635 -0.016519606 0.020080969 1712938
-0.017720997 -0.017750382 0.020137638 66850
-0.017317176 -0.01900959 0.020207375 3227482
-0.01681459 -0.020218223 0.020254582 3492956
-0.01640296 -0.021471798 0.020322338 3426134
-0.01622647 -0.022112876 0.020362839 2966099
-0.015680015 -0.023297966 0.020399913 3951468
-0.015222013 -0.024526507 0.02045697 3293008
-0.014700949 -0.025723279 0.020499721 3621462
-0.01423043 -0.026956946 0.019899696 3753825
-0.01371634 -0.028156132 0.019943982 3489886
-0.013159931 -0.029334337 0.019978672 16
-0.012569368 -0.030495822 0.020005614 65819
-0.012062728 -0.031697422 0.02005145 34
-0.011806309 -0.032296628 0.020073682 545
-0.011209607 -0.033454567 0.020099178 27
-0.010624051 -0.034617752 0.020127162 29
-0.010015428 -0.03576988 0.020149961 287
-0.0093891621 -0.036913693 0.020168781 66080
-0.0087468028 -0.038050026 0.02018401 65567
-0.0080686212 -0.039169818 0.020191237 287
-0.0073850751 -0.040287405 0.020197287 287
-0.0067135692 -0.041410863 0.020206079 30
-0.0063795447 -0.041973501 0.020210862 30
-0.0056821704 -0.043085486 0.020213902 28
-0.0050173402 -0.044212669 0.020224258 278
-0.0043878555 -0.045356065 0.020242468 539
-0.0036667585 -0.046458274 0.020240366 24
-0.002982378 -0.047577381 0.020246431 278
-0.0022996068 -0.048697531 0.020252913 7
-0.0016117096 -0.049815714 0.020258278 65550
-0.00090235472 -0.050924718 0.020258933 66071
-0.00050997734 -0.05146277 0.020250946 275
0.00016498566 -0.052587599 0.020259276 523
-0.046019614 0.031423807 0.018253237 272
-0.045434475 0.03025651 0.018281773 277
-0.044842303 0.029093713 0.01830861 7
-0.044268489 0.027919859 0.018339857 131598
-0.043649971 0.026773214 0.018360317 131345
-0.043397844 0.026165456 0.018384293 65552
-0.042782605 0.025016963 0.018405542 12
-0.042229652 0.023831248 0.018441707 8
-0.041649759 0.022661895 0.018471405 10
-0.04109174 0.021479756 0.018506303 15
-0.040562332 0.020281017 0.018548012 285
-0.040026248 0.019086629 0.018588066 65821
-0.033611298 0.0062640011 0.018903926 2176334
-0.032908976 0.0051656365 0.018904507 2241860
-0.032097459 0.004127413 0.018879518 1716018
-0.031343162 0.0030566454 0.018868029 2176318
-0.03057754 0.001991421 0.018853977 1911624
-0.029792249 0.00093623996 0.018835396 660272
-0.029024541 -0.00012940168 0.018821031 462903
-0.028238833 -0.0011859834 0.018802524 727609
-0.027291834 -0.0021562278 0.01874651 1716032
-0.026814997 -0.0026401281 0.018717781 1255992
-0.025874436 -0.0036162734 0.018663511 2635865
-0.025086939 -0.004675746 0.018645048 1057085
-0.024218738 -0.0056931078 0.0186079 1909302
-0.023500264 -0.006790936 0.018605635 65827
-0.022669375 -0.0078300536 0.018577367 858409
-0.021961153 -0.0089345276 0.01857762 2899019
-0.015749633 -0.0233576 0.019106776 4146784
-0.015254378 -0.024567604 0.019155636 3686487
-0.014785886 -0.025790185 0.019210532 3949395
-0.014261484 -0.026984751 0.019252643 4279390
-0.013749897 -0.028185099 0.019297615 2700368
-0.013196349 -0.029364645 0.019333005 276
-0.012607217 -0.030526727 0.019360289 65819
-0.012408495 -0.031153858 0.019395635 31
-0.01184386 -0.032327265 0.019428432 38
-0.011248231 -0.033485681 0.019454166 1074
-0.010664523 -0.03464967 0.019482613 1188686
-0.010066211 -0.035819352 0.018854067 3492455
-0.0094396472 -0.036962986 0.018872812 270
-0.0087966919 -0.038098991 0.018887818 28
-0.0081204176 -0.039219588 0.018895358 24
-0.007440567 -0.040338814 0.018902093 26
-0.0070784688 -0.04088828 0.018900469 287
-0.0064368844 -0.042025626 0.018915892 26
-0.0057371259 -0.043136448 0.018918231 278
-0.0050702691 -0.044262618 0.018928006 7
-0.0044389367 -0.04540512 0.018945768 12
-0.003715694 -0.046506286 0.018942952 13
-0.0030281544 -0.047623932 0.018948182 278
-0.002343297 -0.048743099 0.018954024 65546
-0.0016162992 -0.049843878 0.018950522 65544
-0.00090974569 -0.050954163 0.01895161 277
-0.00055491924 -0.051508754 0.018951803 277
0.00015503168 -0.052618176 0.018952221 781
-0.046022296 0.031399429 0.016946211 24
-0.045437336 0.030232042 0.016974881 24
-0.044845045 0.029069245 0.017001748 15
-0.044270694 0.027895689 0.017032936 26
-0.043986678 0.027307034 0.017049313 28
-0.043398738 0.026142001 0.017077178 278
-0.042810202 0.024977446 0.017104909 278
-0.04223001 0.023808032 0.017134607 277
-0.041648626 0.022639483 0.017164037 277
-0.031451523 0.0029728711 0.017586991 9
-0.030687988 0.0019067228 0.017573088 282
-0.029907048 0.00084930658 0.017555147 531
-0.029142737 -0.00021788478 0.01754123 282
-0.028358817 -0.0012752414 0.017522767 530
-0.027570188 -0.0023308098 0.017503262 528
-0.026932776 -0.002727896 0.0174364 266
-0.026147246 -0.0037869513 0.017417818 539
-0.025187254 -0.004753679 0.017358422 284
-0.024428606 -0.0058290958 0.017346397 19
-0.015275598 -0.024603218 0.017851785 12
