# .PCD v0.7 - Point Cloud Data file format
VERSION 0.7
FIELDS x y z
SIZE 4 4 4
TYPE F F F
COUNT 1 1 1
WIDTH 1318
HEIGHT 1
VIEWPOINT 0 0 0 1 0 0 0
POINTS 1318
DATA ascii
0.049651518 0.064932778 0.034493376
0.052180436 0.063761972 0.034615975
0.054181881 0.06314896 0.03496182
0.019946657 0.066501595 0.034429301
0.022586806 0.067066334 0.034561411
0.025525602 0.067900307 0.034345839
0.028495204 0.068531796 0.034666304
0.031348009 0.068725914 0.034488752
0.034575261 0.068815403 0.034512259
0.037616484 0.068678074 0.034661029
0.040560018 0.068378828 0.03447615
0.043442219 0.067574896 0.034498468
0.046305154 0.066739596 0.034476243
0.048440535 0.066244267 0.034485992
0.026470035 0.069004908 0.035354823
0.028730582 0.069101788 0.034564711
0.031387404 0.069173425 0.034266707
0.034175698 0.069226086 0.034559235
0.037177462 0.069087684 0.034550153
0.023187259 0.0027828184 0.037372027
0.025740866 0.0024806554 0.037509579
0.028488297 0.0020354905 0.03763875
0.031518344 0.0016607003 0.03750762
0.034426659 0.0015820196 0.037421133
0.037510373 0.0018310852 0.037517522
0.040557314 0.0022301124 0.037456654
0.043121886 0.0026579732 0.037354175
0.045240253 0.0029786825 0.036879033
0.017098144 0.0054484191 0.037466593
0.019493228 0.0047241403 0.037429359
0.022416882 0.003699159 0.037538119
0.024790742 0.0032150175 0.037424095
0.041257244 0.0032043145 0.037313379
0.043836143 0.0033900342 0.03735378
0.04647059 0.004080391 0.037487812
0.049260456 0.0051239422 0.037518308
0.051534843 0.0058240891 0.037588961
0.011658535 0.0087754177 0.03704536
0.013917647 0.0077452338 0.037499499
0.016225886 0.0067576622 0.037516322
0.01847744 0.0061903894 0.03759855
0.050182682 0.0064359396 0.037524283
0.052579761 0.0072708679 0.037574731
0.054871876 0.008280525 0.037405021
0.0084933303 0.011357293 0.037653629
0.010707282 0.010512482 0.03746279
0.01274389 0.009490951 0.037665863
0.053345215 0.0092821419 0.037519537
0.055858601 0.010042071 0.037461348
0.057897732 0.011003229 0.037551921
0.005509133 0.01485914 0.037509125
0.007653628 0.013722984 0.03753661
0.0096221175 0.012647029 0.037498794
0.058893763 0.013171533 0.037528284
0.060816906 0.014041604 0.037526216
0.0050990623 0.016703198 0.03758885
0.0067362641 0.015899993 0.037489139
0.059654679 0.015531271 0.037366681
0.061714683 0.01627603 0.037555236
0.063393757 0.017320205 0.03738641
0.0024834655 0.020083213 0.037481971
0.0042834114 0.019344138 0.037548099
0.062397685 0.019078899 0.037678786
0.064076282 0.019568073 0.037437536
0.0020780684 0.022699701 0.037544161
0.0034852701 0.021962883 0.037492901
0.064878084 0.022399446 0.037490886
0.066265471 0.02292759 0.037471309
-0.00020837485 0.02647382 0.037249349
0.0015566959 0.025546296 0.037451666
0.0030409694 0.024603024 0.037903473
0.065349601 0.025386883 0.037432484
0.066752493 0.025618451 0.037559826
-0.00037797622 0.028316578 0.037428141
0.001017748 0.028620465 0.037341338
0.065654784 0.028033286 0.037547905
0.067218207 0.028539637 0.037421457
-0.00056559441 0.031510651 0.037315067
0.00080449501 0.031637434 0.037642639
0.065714084 0.03119429 0.037007105
0.067435279 0.031555075 0.037500124
-0.00062644552 0.034779396 0.037592273
0.00066603243 0.034329336 0.037485313
0.065913074 0.033696741 0.038077354
0.067637771 0.034417022 0.03747109
0.069019884 0.034863472 0.03704226
-0.00065763632 0.03751386 0.037485931
0.00071527163 0.037502967 0.037643358
0.065830603 0.037983775 0.037908241
0.067447387 0.037450943 0.037543714
-0.0005244636 0.040355392 0.037484035
0.00088530488 0.040518928 0.037555832
0.065711685 0.040442187 0.037810586
0.067308389 0.040484548 0.037567209
-0.00024855408 0.043136463 0.037269875
0.0013702468 0.043557487 0.037501276
0.0030667931 0.04473269 0.038905412
0.065492541 0.043664772 0.037467834
0.066828042 0.043573171 0.037488472
0.0018412265 0.046431392 0.037474461
0.0032712847 0.046956014 0.037658479
0.065026909 0.046642654 0.037589412
0.066349782 0.046533726 0.037494972
0.002370144 0.049259286 0.037378881
0.0039609149 0.049732827 0.037504323
0.062754862 0.050164744 0.037362352
0.064528778 0.049347308 0.037441313
0.0025496483 0.051201716 0.038729548
0.0048364103 0.052408949 0.037577026
0.0063824309 0.053449504 0.037819162
0.062047426 0.052627861 0.037528571
0.063626379 0.052087896 0.037433475
0.0053797485 0.054885022 0.037705995
0.0072906562 0.055579074 0.0375682
0.0093597174 0.056826014 0.037256081
0.059161309 0.05624795 0.037627671
0.061208762 0.055233445 0.037512291
0.063068464 0.054355562 0.03675282
0.0081298472 0.057886839 0.03752191
0.010105467 0.058799431 0.037413061
0.012327041 0.059701484 0.037142009
0.056341846 0.059444737 0.037603807
0.058438491 0.058440834 0.037472721
0.060373567 0.057149366 0.037812166
0.011103967 0.060685888 0.037480053
0.013423713 0.061754409 0.037518878
0.015594447 0.06270539 0.037655991
0.052908447 0.062334586 0.037551839
0.055346545 0.061301328 0.037482779
0.057401937 0.060407147 0.037497714
0.014224511 0.063505806 0.03734538
0.016638756 0.064193361 0.037533253
0.019278707 0.065395564 0.037381403
0.021367282 0.065699399 0.037788205
0.047352355 0.065679654 0.037679639
0.049583219 0.064979166 0.037479453
0.052265566 0.063785374 0.037525833
0.054202545 0.063103139 0.037561912
0.017841935 0.066007167 0.038251519
0.019930145 0.066514209 0.037361279
0.022551909 0.067081705 0.037437465
0.025523491 0.067970686 0.037462149
0.028342037 0.068537943 0.037576735
0.03132192 0.068719253 0.03738242
0.034473408 0.068817042 0.037486896
0.037671231 0.0686929 0.0374268
0.040608063 0.068382993 0.037523359
0.043587334 0.067567736 0.037465889
0.046359707 0.066699713 0.037430331
0.048427157 0.066202104 0.037657745
0.028943012 0.069131978 0.037334666
0.031832248 0.069234706 0.037408058
0.03450539 0.06921728 0.037336029
0.03710812 0.069094338 0.037591342
0.039184332 0.069000155 0.038963675
0.023005133 0.002673724 0.040499892
0.025639931 0.0024970409 0.040515579
0.028478825 0.0020249502 0.040522333
0.031520769 0.0016623886 0.040493056
0.034495324 0.0015609928 0.040607739
0.03765922 0.0018326347 0.040474184
0.040726699 0.0022337141 0.040409502
0.043111373 0.0026383938 0.040661171
0.045344774 0.0029604435 0.040059593
0.01704156 0.00544661 0.040279668
0.019407148 0.0047514904 0.040441226
0.022430731 0.0036635702 0.040581297
0.024772279 0.0031849116 0.040519629
0.041507285 0.0032233857 0.0398448
0.043700065 0.0033923967 0.040415574
0.046462059 0.0040129889 0.040381435
0.049300026 0.0051367055 0.040518474
0.051535405 0.005783312 0.04054933
0.011692222 0.0088239908 0.040044889
0.013829189 0.0078005916 0.04049512
0.016174473 0.0067527029 0.040443525
0.018216843 0.0062181726 0.039991155
0.050164942 0.0065688845 0.040396351
0.052574724 0.0072192419 0.040518537
0.054828335 0.0082968315 0.040552843
0.0085947514 0.011319992 0.040608473
0.010613923 0.010530108 0.040424105
0.012783361 0.0096150115 0.040531963
0.053839117 0.0094004273 0.04079894
0.055824257 0.010017309 0.040505707
0.057985019 0.011038075 0.040503088
0.0057342891 0.014494747 0.040381394
0.0076854439 0.013643226 0.040371943
0.0095309941 0.012632252 0.040634356
0.056821555 0.012479693 0.039038539
0.05894896 0.013134385 0.040484708
0.060829651 0.014064088 0.04067146
0.0050257607 0.016703645 0.040521514
0.0067276191 0.016005469 0.040464893
0.059693802 0.015484683 0.040592134
0.061792724 0.016348567 0.040463775
0.063378416 0.017279539 0.040574189
0.00248431 0.020057442 0.040543571
0.0042458056 0.019309539 0.04049781
0.062437601 0.018998189 0.040505078
0.064064339 0.01960515 0.040524285
0.0021047033 0.022567088 0.040508963
0.003505914 0.02222096 0.040529735
0.06494046 0.022413706 0.040601414
0.066258036 0.02276036 0.040270835
-0.00010653833 0.026142528 0.04028219
0.0015690605 0.025531961 0.04044982
0.0031080246 0.024187848 0.039961636
0.065366276 0.025299622 0.040415891
0.066658489 0.025790056 0.040441446
-0.00037345433 0.028564023 0.040376298
0.0010156046 0.028528683 0.040465962
0.065657765 0.028170731 0.040310264
0.067187279 0.028679013 0.040477723
-0.00055804767 0.031545006 0.040463727
0.00081831089 0.031687215 0.040470168
0.065789394 0.030956602 0.04076346
0.06743823 0.031642467 0.040354948
-0.0006209347 0.034562275 0.040493354
0.00069663592 0.034552786 0.040435381
0.065961361 0.033198401 0.040727243
0.067625441 0.034475543 0.040427666
-0.0004927431 0.037340071 0.040406141
0.00076153752 0.037533473 0.040452387
0.065792195 0.038599551 0.04087545
0.067492925 0.037455771 0.040573929
-0.00044213128 0.040615015 0.0407147
0.0008643312 0.040635202 0.040357009
0.065762453 0.040788405 0.040849745
0.067325883 0.040591162 0.040479634
-0.00035142261 0.042786416 0.040749554
0.0013948361 0.043565247 0.040419105
0.065536782 0.043619841 0.040576037
0.066885389 0.043381408 0.040423259
0.0019123111 0.04650278 0.040473726
0.0032951476 0.047085732 0.040419221
0.065073825 0.046732139 0.040526245
0.066430971 0.046118088 0.040200301
0.0022947469 0.049186032 0.040389344
0.0038822719 0.049862355 0.040464696
0.062692955 0.050336115 0.040301368
0.064525545 0.049452744 0.040490586
0.066110864 0.048586685 0.03992806
0.0028799425 0.051967997 0.040306289
0.0048660049 0.052376136 0.040639866
0.0063263667 0.053320125 0.04083379
0.062056579 0.052795049 0.04060873
0.063584067 0.052237034 0.040433485
0.0054350537 0.054793939 0.040570799
0.0074317022 0.055725057 0.040456556
0.0091489628 0.056501746 0.040687323
0.059289791 0.056097951 0.040550914
0.061227232 0.055292781 0.040530663
0.063004375 0.05407238 0.039033771
0.0081882579 0.057934787 0.040446531
0.01020198 0.05876882 0.040465444
0.012245744 0.059599996 0.040982664
0.056369077 0.059329193 0.04059599
0.05840696 0.05840933 0.040537313
0.060272485 0.057316877 0.04043293
0.0088978112 0.060019612 0.041000843
0.011120297 0.060772102 0.040367026
0.013406942 0.061762407 0.040525798
0.015403392 0.062790856 0.040397
0.053155746 0.062330171 0.040420018
0.055393536 0.06118368 0.040428154
0.05754767 0.060233116 0.040687282
0.014146448 0.063517429 0.040536601
0.0165952 0.064288549 0.040494401
0.019228268 0.065315254 0.040455289
0.021510616 0.065748714 0.040647339
0.047279458 0.065660462 0.040561501
0.04957382 0.064942136 0.040441692
0.052278519 0.063821405 0.040402409
0.054102767 0.06313359 0.040745903
0.017679721 0.066049039 0.041718721
0.019701017 0.066496432 0.040589534
0.022538425 0.067026623 0.040450901
0.025462016 0.067917638 0.040510487
0.028351527 0.068548173 0.040379986
0.031266045 0.068699881 0.04045378
0.034566812 0.068778589 0.040471464
0.037653454 0.068660311 0.040391743
0.040594414 0.068337612 0.040492218
0.043346252 0.067611359 0.040519752
0.046296295 0.066740997 0.040499493
0.04857488 0.066272028 0.040314838
0.028548351 0.069086216 0.04035037
0.031958748 0.069155447 0.040649109
0.034420673 0.069218367 0.040603876
0.036890037 0.069112726 0.040424079
0.022925759 0.0026999798 0.043577272
0.025793077 0.0023907865 0.043527551
0.028541032 0.0019858982 0.043353666
0.031501494 0.0016959407 0.043553781
0.034524541 0.0016056088 0.043500859
0.037572552 0.0018057551 0.043375902
0.040542271 0.0022080336 0.043525837
0.043060753 0.0026364319 0.043541603
0.045261826 0.0029350321 0.043614596
0.017009234 0.0054728026 0.04347479
0.019532265 0.0046628225 0.043548163
0.022544194 0.0036198623 0.043483764
0.024824753 0.0031563281 0.043250516
0.041588433 0.0032088645 0.044240572
0.043986868 0.0034422458 0.043555498
0.046529051 0.0040409672 0.043492064
0.049346257 0.0051552043 0.043507375
0.051522084 0.0057379245 0.043707348
0.011640881 0.0088689476 0.043795608
0.013758624 0.0078045456 0.043598242
0.016089367 0.0068069538 0.043358963
0.018210744 0.0062035923 0.043519195
0.050335623 0.0066636056 0.043551236
0.052579716 0.0072433534 0.043525446
0.054802202 0.0082406541 0.043549232
0.0085711647 0.011422068 0.043445673
0.010580824 0.010559102 0.043468311
0.012607922 0.0096903602 0.043573786
0.053811103 0.0094520478 0.043959964
0.055811331 0.0099606309 0.043614838
0.057979748 0.011066572 0.043448109
0.0054111797 0.014878556 0.043149471
0.0076866848 0.013636888 0.043371525
0.0094864713 0.012827275 0.043521114
0.056970686 0.012117326 0.043269634
0.059000701 0.013301946 0.043567799
0.060724519 0.014061191 0.043476541
0.0049715359 0.016756233 0.043553662
0.0069760443 0.01576126 0.043379523
0.059813555 0.015650572 0.043510757
0.061699692 0.016318368 0.043499265
0.063362174 0.017357754 0.04354655
0.0024429366 0.02036819 0.043748323
0.004297731 0.019356064 0.043568071
0.062430747 0.019075645 0.043578718
0.064177126 0.019725781 0.043443721
0.0020654548 0.022622429 0.043440629
0.0034560196 0.022048965 0.04348655
0.064807408 0.022410348 0.043591116
0.066194691 0.022921169 0.043201886
-0.000265643 0.02643469 0.043730229
0.0014791832 0.025641667 0.043500587
0.0030991584 0.02435416 0.043429643
0.065168604 0.025158364 0.043477625
0.066710256 0.025680475 0.043570302
-0.00044067125 0.028597141 0.043708075
0.00096502481 0.028607473 0.043532684
0.065628543 0.027741669 0.043510657
0.067104153 0.028594641 0.043603901
-0.00056748762 0.031556543 0.043438703
0.00081121112 0.03137742 0.043531079
0.065759584 0.030887261 0.0430087
0.067370869 0.031523529 0.043472286
-0.00066381384 0.034671981 0.043540008
0.00064545934 0.034194078 0.043469664
0.065960974 0.034614444 0.042263389
0.067536652 0.034505103 0.043527093
0.069084793 0.034455091 0.04379563
-0.00070622272 0.037357613 0.043394957
0.00065573904 0.037494175 0.043360118
0.065863147 0.037202835 0.042883299
0.067387164 0.037470616 0.043354589
-0.00046261286 0.040256958 0.043478016
0.00088216917 0.040434811 0.043426909
0.065735094 0.040528379 0.043403924
0.067275345 0.040467426 0.043474391
-0.00028740763 0.042900182 0.04334078
0.0013335912 0.043544862 0.043495357
0.065451153 0.043707907 0.04344869
0.066911951 0.043498583 0.043512464
0.0018909741 0.046506651 0.043517418
0.0032855847 0.046948474 0.043459285
0.065073445 0.046613451 0.043476347
0.06642279 0.046086241 0.043457925
0.0023415387 0.049194939 0.04349811
0.0038683326 0.049697593 0.043552414
0.062621295 0.050350115 0.043426905
0.064443067 0.049446732 0.043540154
0.066109046 0.048420038 0.043918513
0.0027757287 0.051315878 0.043493491
0.0048381831 0.052330207 0.043470021
0.0063203736 0.05333155 0.043482434
0.062060449 0.052619878 0.043623518
0.063562989 0.05227302 0.043435577
0.0053679878 0.054910477 0.043745581
0.0073465975 0.055694003 0.043380849
0.0092618167 0.056831986 0.043665156
0.059293497 0.056140132 0.043417372
0.061197039 0.055255126 0.043502737
0.0082796542 0.05799111 0.043572549
0.010214837 0.058803022 0.04346985
0.012112483 0.059669476 0.043368507
0.056513928 0.05929736 0.043733437
0.058462646 0.058367394 0.043511849
0.060467124 0.057160698 0.043459371
0.010979755 0.060647063 0.043606438
0.013370605 0.061792355 0.04354728
0.015446814 0.062580228 0.043381318
0.05307842 0.062323682 0.043512821
0.055306938 0.061277371 0.043495044
0.057578821 0.060293566 0.043857832
0.01428692 0.063610211 0.043524835
0.016672628 0.06425029 0.043579329
0.01928178 0.065336436 0.043508392
0.021395346 0.065787137 0.043405186
0.047246538 0.065691464 0.043416698
0.049707197 0.06491401 0.043457713
0.052245818 0.063725039 0.043480493
0.054128386 0.063147709 0.043310203
0.02002112 0.066528499 0.043518078
0.022575747 0.06705422 0.043458544
0.025580755 0.067956962 0.04346855
0.028390955 0.068524599 0.04356049
0.031282146 0.068710811 0.043603465
0.034456071 0.068806209 0.043469839
0.037630443 0.068665765 0.043449976
0.040585626 0.068314761 0.043596156
0.043460365 0.067577459 0.043529935
0.046438392 0.066726618 0.043641094
0.048454374 0.06624753 0.044109721
0.029103627 0.069158554 0.043123022
0.031807393 0.069188312 0.043410737
0.034439322 0.069255047 0.043704353
0.03735321 0.06909997 0.043281157
0.023125684 0.0027284303 0.046611603
0.025608059 0.0024949855 0.04660441
0.0284616 0.0020220089 0.046471439
0.031526763 0.0016862903 0.046546541
0.034567159 0.0015627112 0.046438348
0.037544407 0.0018229919 0.046519928
0.040482715 0.0022086487 0.04643866
0.042881239 0.0025960254 0.046527997
0.045146994 0.0028747022 0.046747066
0.017004021 0.0055263266 0.046431568
0.019432293 0.0047372384 0.046454187
0.022439033 0.0036647201 0.046437792
0.024657331 0.0032239405 0.046078514
0.041485716 0.0031315014 0.047148056
0.044096574 0.0034071661 0.046547014
0.04645649 0.004064328 0.046490308
0.049323428 0.0051754215 0.046510961
0.051394295 0.005801633 0.047003713
0.011820726 0.008515358 0.046466649
0.013720386 0.0077877156 0.046627279
0.016110564 0.0067573823 0.046552178
0.018364415 0.0061534159 0.046770334
0.050119013 0.0063946894 0.046410888
0.052567199 0.0072271186 0.046591893
0.054806005 0.0082622133 0.046637997
0.0085482923 0.011375509 0.046411209
0.010595682 0.010536072 0.046536978
0.012749017 0.0096266652 0.046483915
0.053532217 0.0090503991 0.047220841
0.055790842 0.010022197 0.046605919
0.057983395 0.011075422 0.046367962
0.0057152249 0.014640212 0.0465765
0.007715621 0.013673793 0.046520121
0.0096071251 0.012645286 0.046553336
0.056610435 0.012086857 0.045209765
0.059052821 0.013226424 0.04646118
0.060737923 0.014063704 0.046584118
0.0050600991 0.016764309 0.046473064
0.0067753927 0.015983535 0.046459373
0.05973836 0.01548971 0.047036983
0.061796021 0.016319582 0.046519656
0.06334459 0.017084634 0.046237297
0.0024832042 0.020137854 0.046506625
0.0043020556 0.01944699 0.046489149
0.0060936064 0.018035665 0.046483994
0.062406115 0.019016333 0.046426043
0.064131938 0.019723171 0.046487231
0.0019629458 0.022744767 0.046498418
0.0034500842 0.022043006 0.046613842
0.064818718 0.02235668 0.04639532
0.066262044 0.022923391 0.046557229
-3.4868717e-05 0.026208192 0.046622112
0.0015539918 0.025465721 0.046469238
0.065281488 0.025308771 0.046659362
0.066690721 0.025601434 0.046528943
-0.0003938569 0.028542794 0.046278842
0.00099577731 0.02856336 0.046504289
0.065644488 0.028182767 0.046589296
0.067115359 0.028623607 0.046632983
-0.00053444685 0.03162406 0.046642303
0.000817255 0.031533737 0.04640352
0.065843813 0.031658687 0.046567142
0.067371279 0.03144021 0.046664249
-0.00065095967 0.034539562 0.046538629
0.00064907112 0.034400698 0.046576168
0.06574592 0.034579575 0.046330258
0.06763605 0.03448578 0.046600439
-0.00062129257 0.037207611 0.046885703
0.00082460541 0.037596706 0.04650183
0.06586469 0.037983015 0.047444716
0.067467056 0.037448768 0.046608355
-0.0004349504 0.040355593 0.046604529
0.00096574874 0.040586717 0.046598036
0.065778002 0.040769193 0.04678341
0.067245327 0.040416967 0.0465836
-0.00027878085 0.042735673 0.046518717
0.0013696125 0.043585587 0.046513531
0.065500915 0.04365477 0.046524689
0.066857867 0.043307461 0.046613771
0.0018327272 0.046450894 0.046551384
0.0032168757 0.046924662 0.046662722
0.064964063 0.046676181 0.046361607
0.066427864 0.046218149 0.046593547
0.0023434542 0.049028296 0.046446297
0.0039758021 0.0498848 0.04649695
0.06261608 0.050372548 0.046804931
0.064408183 0.049491197 0.046488121
0.066132173 0.048553355 0.047068585
0.0028111786 0.051438786 0.046864003
0.0047816979 0.052509189 0.046544272
0.0062942188 0.0533324 0.046191689
0.062159039 0.05267489 0.046444841
0.063658319 0.052048203 0.046626695
0.0051542278 0.054725207 0.046544697
0.0074628294 0.055715665 0.046472024
0.00922383 0.056701701 0.046810806
0.05926805 0.056302134 0.046609152
0.061141349 0.055262126 0.046530727
0.0080853822 0.05802913 0.046366856
0.010091539 0.058749069 0.046513874
0.012205441 0.059698999 0.046721533
0.056368571 0.059396494 0.046486031
0.058390424 0.058488924 0.046480257
0.060429811 0.057338268 0.046553917
0.011009461 0.060757078 0.046675328
0.013277423 0.061682723 0.046521511
0.015398848 0.062800087 0.046077017
0.053248964 0.062211607 0.046559524
0.055347692 0.061340787 0.046542265
0.057406664 0.06034746 0.046133172
0.014146544 0.063469015 0.046343319
0.016561391 0.064286634 0.046645969
0.019145953 0.065297298 0.046504084
0.021590969 0.065790892 0.046560187
0.047173645 0.065696001 0.046438925
0.049563613 0.064957649 0.046516869
0.052215565 0.063826032 0.046526082
0.054209515 0.063303038 0.046940982
0.020014998 0.066569582 0.046620131
0.022525253 0.06705007 0.046551466
0.025521254 0.067934282 0.046415601
0.028387515 0.068540685 0.046605516
0.031216623 0.06873811 0.046640575
0.03450628 0.068807952 0.046725433
0.037605144 0.068681732 0.046542738
0.040578473 0.068361469 0.046525579
0.04344967 0.06757649 0.046559773
0.046327103 0.066758186 0.046503354
0.048594471 0.06620381 0.046690714
0.028843969 0.069102041 0.046348598
0.031713154 0.069218859 0.046587903
0.034438275 0.069248907 0.046473883
0.037062772 0.069106862 0.046800897
0.023184057 0.00276257 0.049247503
0.02581851 0.0024469227 0.04954458
0.028423343 0.0020130582 0.049431387
0.03141294 0.0016524909 0.049397081
0.034512188 0.0015740637 0.04945682
0.037628163 0.0018210905 0.049540848
0.040563069 0.0022205634 0.049449604
0.042946126 0.0026577087 0.049535427
0.045371696 0.0029679735 0.049127366
0.017184019 0.0053984271 0.049522858
0.019556018 0.0046712779 0.049380951
0.022403331 0.0036859794 0.049450364
0.024680261 0.0032168324 0.049443435
0.041491855 0.0031013116 0.04943601
0.043874282 0.0033578996 0.049486458
0.046584759 0.0040532108 0.049408451
0.049296275 0.0052022426 0.049534503
0.051570494 0.0058013117 0.049194533
0.011640275 0.0089135692 0.049347341
0.013705119 0.0078374464 0.049439613
0.016222473 0.0067539397 0.049479626
0.018254936 0.0061445087 0.049110875
0.050411075 0.0064669265 0.049486063
0.052481756 0.0071504684 0.049591016
0.054778703 0.0082617085 0.049496446
0.0084460396 0.01126796 0.049480669
0.010525335 0.010646175 0.04953143
0.01268555 0.0095909191 0.049401406
0.053632058 0.0093595805 0.049889445
0.055719525 0.0099553615 0.049562603
0.057934891 0.011076349 0.049472291
0.0057934397 0.014314353 0.049083192
0.0077139307 0.013608932 0.049502518
0.0094448924 0.012748964 0.049615424
0.056976229 0.012553453 0.048261702
0.058940161 0.013332285 0.049493462
0.060688365 0.013939989 0.049398988
0.0050445525 0.016615603 0.049517155
0.0067053088 0.016103344 0.049450178
0.059655786 0.015556872 0.048004508
0.061658707 0.016327316 0.04951134
0.063333154 0.017234506 0.049393952
0.0025541573 0.020102814 0.049430612
0.004102827 0.019509528 0.049401477
0.06253235 0.019352568 0.049378429
0.06413953 0.019615255 0.04942292
0.0020193397 0.022672117 0.049457915
0.0034804123 0.022141024 0.049714413
0.062970236 0.02150473 0.049574971
0.064794883 0.022456201 0.049403377
0.066274151 0.023005184 0.049604483
-0.00018016994 0.025887569 0.048958421
0.0015469769 0.025534829 0.049565293
0.0030504167 0.024211852 0.049580932
0.065306544 0.025281209 0.049382832
0.066723473 0.02569541 0.04961187
-0.00044695914 0.028555578 0.049460791
0.0010315196 0.02846407 0.049467023
0.065600686 0.028056763 0.049712542
0.06712734 0.028612508 0.049477212
-0.00056921953 0.031580325 0.049503442
0.00075703615 0.031526372 0.049521782
0.065743849 0.031123765 0.050123565
0.067433216 0.031565309 0.049525823
-0.00071767636 0.034706548 0.049385961
0.00067776279 0.034463357 0.049571678
0.067624569 0.034497265 0.049334835
-0.00051812589 0.037481867 0.049575526
0.00074848346 0.037509244 0.049538888
0.065952539 0.038318455 0.048531353
0.067521714 0.037536897 0.049458064
-0.00036086439 0.040497735 0.049528103
0.00087525405 0.040515296 0.049548
0.06573502 0.040542319 0.049234986
0.067348473 0.040453866 0.049570579
-0.0003332624 0.042789828 0.049203947
0.0013976692 0.043622043 0.049491856
0.065444455 0.043764561 0.04972595
0.06685558 0.043437622 0.04950938
0.0018400329 0.046495773 0.049563967
0.003318259 0.047087476 0.049682282
0.065008558 0.046752505 0.049394831
0.066440858 0.0462787 0.049546536
0.0022440453 0.049139377 0.049576029
0.003869924 0.049830303 0.049329329
0.062697224 0.05028978 0.049690295
0.064427435 0.049478177 0.049404237
0.066080824 0.048584972 0.049506634
0.0029478073 0.052141726 0.048343897
0.0047974358 0.052440133 0.049565308
0.0064244806 0.053452458 0.049277317
0.062057927 0.052925467 0.049443297
0.063673951 0.052205283 0.049558889
0.0054028835 0.054753002 0.049335379
0.0074448837 0.055752721 0.049466748
0.009443447 0.05681777 0.049849458
0.059379175 0.056128655 0.049554747
0.06116413 0.055296488 0.049532164
0.0081387321 0.057948645 0.049425099
0.010200853 0.058848344 0.049601655
0.012325059 0.059694052 0.050208692
0.056280803 0.059460748 0.049543031
0.058306497 0.058506466 0.049487576
0.060290474 0.057400465 0.049777463
0.0088852942 0.060065597 0.049474239
0.010988642 0.060716685 0.049505126
0.013321105 0.061773974 0.049457718
0.015495513 0.062636398 0.049671121
0.053207379 0.062264159 0.049613882
0.055447381 0.061237931 0.049567871
0.057485659 0.060317487 0.049123503
0.01436391 0.063593529 0.049360003
0.016635036 0.064337738 0.04943933
0.01929608 0.065370269 0.049459625
0.021323092 0.065672517 0.048888136
0.047358196 0.065658435 0.04927218
0.04947079 0.06504155 0.049544655
0.052080229 0.063831754 0.049553592
0.054144308 0.063212037 0.049305081
0.017724589 0.066077873 0.049005717
0.019970244 0.066501044 0.049536403
0.022450168 0.067052282 0.049647953
0.025498945 0.067959353 0.049415547
0.028452789 0.068530805 0.049567252
0.031323835 0.068713456 0.049440656
0.034657415 0.068796284 0.049471945
0.037622984 0.068659425 0.049524445
0.040583685 0.068343058 0.049431674
0.043454956 0.067593127 0.049526885
0.046369761 0.06671349 0.049468134
0.048639107 0.066258267 0.049378429
0.0288177 0.069077976 0.04983506
0.031675465 0.069182746 0.049579076
0.034340274 0.069216847 0.049602915
0.037085313 0.069101825 0.049555663
0.023083774 0.0027311004 0.052123562
0.025658995 0.0024628919 0.052487366
0.028556067 0.0019988834 0.05242721
0.031560499 0.0016743221 0.052421026
0.034520455 0.0015889795 0.052379634
0.037702266 0.0018384519 0.052359186
0.040623542 0.0022421135 0.052551124
0.043092903 0.002660488 0.052328333
0.045287773 0.0029422045 0.052715812
0.017041631 0.0054708412 0.052374117
0.019523375 0.0046875249 0.052503619
0.022315321 0.003692844 0.052542005
0.024962738 0.0032408454 0.052576087
0.041474253 0.003192462 0.051913977
0.043883774 0.0033670692 0.052623462
0.046627484 0.004150663 0.052464627
0.049302336 0.0051748627 0.052503642
0.05147313 0.0057334984 0.052473463
0.011568315 0.0088534392 0.051978741
0.013728247 0.0077780862 0.052513197
0.016074415 0.0067565343 0.052452169
0.018408727 0.0061144703 0.052435245
0.0500402 0.0064435266 0.052564379
0.052612308 0.0072669573 0.052543666
0.054851811 0.0082570612 0.052480981
0.008549273 0.011571269 0.052516952
0.010598484 0.010587083 0.052445024
0.012771242 0.0096393218 0.052288122
0.053455271 0.009264186 0.052925214
0.055735033 0.0099607017 0.052458908
0.058062058 0.011107937 0.052526884
0.0056754639 0.014747833 0.052467346
0.0077106571 0.013644868 0.052535877
0.0095840469 0.012882712 0.052345585
0.058895435 0.013288515 0.052403584
0.060724936 0.014000725 0.052371498
0.0050500832 0.016696816 0.052500572
0.006754695 0.015945047 0.052510485
0.059557933 0.015232772 0.052006345
0.061681218 0.016313115 0.052442688
0.063389309 0.017337825 0.052490972
0.0025273275 0.020029718 0.052467782
0.0042152791 0.019369332 0.052501418
0.062508516 0.019126184 0.05251899
0.064136088 0.019760912 0.052536782
0.0020734109 0.022584438 0.052475687
0.0036212909 0.022034748 0.052379657
0.064898454 0.022487281 0.052460901
0.06634479 0.023180518 0.052391667
-0.00027964544 0.026515171 0.053050235
0.0015027275 0.025381112 0.052500855
0.0031823814 0.024401069 0.053655099
0.065282442 0.025259493 0.052299753
0.066694267 0.0257675 0.052515056
-0.00042443819 0.02852563 0.05248978
0.00097723654 0.028536011 0.052434128
0.065651104 0.028247513 0.052634906
0.067166053 0.02857588 0.052388359
-0.00051755947 0.031579427 0.052547291
0.0007345737 0.031595692 0.052311145
0.065872945 0.031610332 0.05227695
0.067386776 0.031711087 0.052483417
-0.00064512872 0.034466852 0.052466173
0.00072282198 0.034358766 0.052337158
0.067481667 0.034591291 0.052431356
-0.00062830921 0.037300278 0.05246545
0.00068898225 0.03734269 0.052412547
0.065882944 0.037719656 0.052250106
0.067344442 0.03748342 0.052417547
0.069044411 0.036051154 0.052195847
-0.00044563136 0.040510353 0.052521516
0.00088152994 0.040499084 0.052509196
0.065767623 0.040674318 0.052270155
0.067302346 0.040546861 0.052477427
-0.00029146782 0.043228399 0.052472781
0.0013126492 0.043666735 0.052411322
0.06547986 0.043536019 0.052422702
0.066918008 0.043309607 0.05244343
0.0019211898 0.046291374 0.052407056
0.0032784843 0.046768017 0.052320782
0.065194704 0.046646718 0.052363608
0.066490702 0.046125066 0.052290667
0.0022705793 0.049091984 0.052626219
0.0038613335 0.049626295 0.052584518
0.062637597 0.05020212 0.05265104
0.06440042 0.049512606 0.052551493
0.066093564 0.048480093 0.053242028
0.0028983615 0.051514179 0.052372456
0.0047817244 0.052370444 0.052451685
0.0064069331 0.053254247 0.052868139
0.062072836 0.052896734 0.052472834
0.063631095 0.052126437 0.052280851
0.0053299791 0.054798376 0.052327473
0.0073420643 0.05565837 0.05247429
0.0093388902 0.056768458 0.052753404
0.059323058 0.056159489 0.052537639
0.061160449 0.055285513 0.052447699
0.063060716 0.054387037 0.052207917
0.0081318421 0.058054615 0.052508742
0.010131715 0.058833577 0.052459016
0.012133132 0.059793431 0.051749919
0.056338873 0.059300408 0.052508082
0.058394399 0.058380824 0.052473124
0.060267996 0.057470866 0.052827477
0.010937263 0.060713675 0.052520741
0.013326641 0.061751511 0.052514553
0.015675714 0.062747009 0.052800309
0.053137265 0.062334966 0.052505694
0.055317711 0.06126108 0.052503895
0.057650644 0.060156725 0.05235976
0.014088278 0.063426651 0.052503891
0.016536068 0.064217485 0.052373387
0.019263826 0.065362334 0.052506071
0.021324024 0.065803871 0.05234034
0.047080871 0.065711148 0.052443881
0.049616858 0.064938828 0.052478496
0.052176088 0.06380678 0.052502312
0.054414671 0.063225806 0.052906413
0.017988622 0.066015244 0.051528931
0.019864889 0.066519834 0.052521005
0.022547465 0.067050867 0.052536342
0.025601232 0.067988403 0.052437011
0.028451528 0.068551347 0.05243443
0.031241182 0.068709254 0.052390493
0.03446421 0.068785146 0.05247226
0.037737776 0.068678364 0.052319441
0.040492807 0.068318322 0.052318636
0.043380544 0.067608744 0.052547492
0.046458904 0.066665009 0.05249304
0.048717324 0.066160746 0.052614853
0.028834263 0.069111019 0.052289534
0.031857654 0.06919758 0.052371003
0.034504239 0.069229774 0.052440688
0.036989838 0.069156356 0.052369934
0.039162576 0.069088817 0.053285658
0.02303114 0.0027535495 0.055790525
0.02555917 0.0024578811 0.055448703
0.028490601 0.0019885066 0.055619754
0.031464066 0.0016753618 0.055410214
0.034410235 0.0015607536 0.055567104
0.037515111 0.0018366863 0.055584639
0.040500481 0.0022047556 0.055514015
0.042925958 0.0026084622 0.05552832
0.045240253 0.0029786825 0.055786803
0.017080553 0.0054667778 0.055573985
0.01954042 0.004627231 0.055431478
0.022410285 0.0037010422 0.055436864
0.024796072 0.0031896364 0.055587776
0.041157842 0.0031437278 0.054898839
0.043861676 0.0033758928 0.055556066
0.046701524 0.0040560374 0.0554795
0.049214259 0.0051747807 0.055586018
0.051370211 0.0057694516 0.055573683
0.011676833 0.0087205665 0.055436406
0.013668331 0.0078293299 0.055495828
0.01604232 0.0067867963 0.055521213
0.018182347 0.0061230748 0.055688251
0.050243087 0.006422848 0.055710003
0.052502476 0.0072315498 0.055536665
0.054831006 0.0082971482 0.055471931
0.0085120462 0.011370356 0.055548597
0.010591735 0.010536252 0.055480368
0.012935977 0.0095815146 0.05548884
0.053627837 0.0092372596 0.055330295
0.055747312 0.0099814218 0.055550657
0.057965551 0.011131862 0.055417888
0.005717285 0.014727384 0.056051992
0.007634602 0.013636648 0.055540167
0.0096982643 0.012848755 0.055430893
0.059002019 0.01337555 0.05547075
0.060858697 0.014093861 0.055567849
0.0050189849 0.016555408 0.055519599
0.0068286783 0.016036408 0.055455379
0.059653968 0.015394114 0.055575386
0.06162915 0.016328812 0.055540983
0.063372217 0.017204249 0.055593412
0.002453102 0.020223884 0.05549641
0.00419997 0.019343767 0.055531539
0.062560685 0.019303143 0.055745535
0.064157091 0.019666318 0.055550978
0.0020372618 0.022604851 0.055583093
0.0035772179 0.022086784 0.055431578
0.062899888 0.021240652 0.056679279
0.064868577 0.022411186 0.055441216
0.066207327 0.022580095 0.055146016
-0.00019091864 0.026549885 0.05478977
0.0013885709 0.025686465 0.055501472
0.0031265318 0.024034292 0.054010212
0.065329112 0.025382161 0.055588003
0.066737317 0.025711708 0.05551479
-0.00039792771 0.028657973 0.055642493
0.00098674232 0.028587045 0.055552095
0.06570439 0.028281137 0.055635452
0.067148626 0.028582666 0.055485602
-0.0004706991 0.031557765 0.055552863
0.00077782013 0.031588357 0.055434186
0.065865412 0.031541187 0.05584972
0.067396656 0.031547561 0.055541813
-0.00056850474 0.034656465 0.055499613
0.00062001479 0.034335226 0.055391409
0.065860838 0.034276366 0.055334449
0.067478143 0.034483008 0.055451334
0.069000483 0.0340873 0.055847734
-0.0005105497 0.037312794 0.055480748
0.00067548477 0.037535865 0.05546698
0.065870039 0.038097888 0.055912472
0.067376256 0.037435308 0.055503078
-0.00042968628 0.040401995 0.055781491
0.00092706084 0.040637597 0.055420648
0.065688677 0.040685873 0.056009721
0.067176268 0.040499754 0.055568207
-0.00022548933 0.04334075 0.055637639
0.0012691707 0.043632481 0.05553614
0.065468319 0.043739699 0.055527035
0.066853426 0.043505486 0.055510648
0.0018819316 0.046436779 0.055535454
0.0033202711 0.047093421 0.055358332
0.065072052 0.046619993 0.055419583
0.066504776 0.045924652 0.055210311
0.0023997533 0.049268305 0.055499475
0.0037948953 0.04971141 0.055655092
0.062681369 0.050369378 0.055711091
0.064514585 0.049393773 0.055646945
0.066165976 0.048477769 0.055349398
0.0028807241 0.051278666 0.054404438
0.0048622023 0.052350055 0.055408288
0.0063599185 0.053385604 0.055922791
0.062036317 0.052693911 0.055509217
0.063587107 0.052116632 0.055343751
0.0052889059 0.054837279 0.055605724
0.0073933345 0.055673596 0.055516612
0.0091633126 0.056494892 0.055718519
0.059282966 0.056235757 0.05543121
0.061202653 0.055143811 0.055582281
0.063100576 0.054352552 0.055968493
0.0082055805 0.057886001 0.055542838
0.010180034 0.058886625 0.055454854
0.012206475 0.059711833 0.055257782
0.056350421 0.059422068 0.055631287
0.058266293 0.058573905 0.055488158
0.06024456 0.057429649 0.05511418
0.011210629 0.060800474 0.055551585
0.013390527 0.061808743 0.05554422
0.015538237 0.062724873 0.055716403
0.053056192 0.062346831 0.055540666
0.055348195 0.061215304 0.055587173
0.057315893 0.060595434 0.055347316
0.014212274 0.063641183 0.055596974
0.016461857 0.064224206 0.055428788
0.01913766 0.065280154 0.055397723
0.0214573 0.065812841 0.055869963
0.047286648 0.065699473 0.05573345
0.049555212 0.064898334 0.055507373
0.052207753 0.063806757 0.055457655
0.017985195 0.066249304 0.056306303
0.020047147 0.066508144 0.055538602
0.02256861 0.067068361 0.055609692
0.025548421 0.06794975 0.055408694
0.028477462 0.068563491 0.055535503
0.031315707 0.068716973 0.055517789
0.034443632 0.068812408 0.055646759
0.037601613 0.06868168 0.0555964
0.040561914 0.068345442 0.05532153
0.04349868 0.067548856 0.055569526
0.046338324 0.066731036 0.055412401
0.048532743 0.066307396 0.055880334
0.028985949 0.069087021 0.056098245
0.031890173 0.069163673 0.055263873
0.034418687 0.069221377 0.055353366
0.037251536 0.069139361 0.05577616
0.022942256 0.0027142228 0.058622289
0.02571311 0.0024412624 0.058538541
0.028541811 0.0020305323 0.058622148
0.031462703 0.0017176316 0.058482118
0.034539476 0.0015872284 0.058560368
0.037482146 0.0018435743 0.058447741
0.040423844 0.0022266754 0.058588315
0.042979762 0.0026414904 0.058562275
0.045362104 0.0029131572 0.058529455
0.017077703 0.0054965229 0.058417432
0.019574668 0.0046203239 0.058528408
0.022446368 0.0036609229 0.058451463
0.024804899 0.0032474101 0.058313597
0.041429579 0.0031236373 0.058569591
0.043915763 0.0034281404 0.058432199
0.046540722 0.0041384171 0.058524963
0.049254209 0.0051837298 0.058555692
0.051322084 0.0057444242 0.058526687
0.011690842 0.0087195681 0.058554538
0.013669033 0.0078967502 0.058429878
0.016087335 0.0067840386 0.058541045
0.018187601 0.0061999871 0.058545899
0.050087549 0.0064571113 0.058537569
0.052519072 0.0072342376 0.058506589
0.054793704 0.0083328132 0.058469199
0.0085002203 0.011374859 0.0589015
0.010507872 0.010602515 0.058498245
0.012867228 0.0095347287 0.05840889
0.053466853 0.0091814399 0.059164077
0.05582412 0.010037892 0.058509491
0.05796117 0.011106269 0.058657818
0.0056525818 0.014626582 0.058469921
0.007655717 0.013670322 0.058465682
0.0096434206 0.012662557 0.058667321
0.059031345 0.01330083 0.05846221
0.060822576 0.014120281 0.058551755
0.0050017866 0.016637759 0.058513101
0.0067809131 0.01598403 0.05840021
0.059602808 0.01535209 0.059430677
0.061695822 0.016344136 0.058461655
0.063427366 0.017207226 0.058766112
0.0024064214 0.020204304 0.058591884
0.004237941 0.019314291 0.058398943
0.062422805 0.019023467 0.058457389
0.064122386 0.019763052 0.058530789
0.0019992813 0.022665013 0.058651909
0.0035758689 0.022184603 0.058634579
0.064667106 0.022343207 0.058541659
0.066300079 0.022873217 0.058351848
-0.00028537214 0.026605031 0.057982016
0.0015307537 0.025392771 0.058420509
0.003228128 0.024365813 0.059811532
0.065366484 0.025337799 0.058630671
0.066734262 0.025659291 0.05861618
-0.00045219777 0.028571879 0.058356944
0.00097568432 0.028506218 0.058567844
0.065522358 0.028120406 0.058525242
0.067032978 0.028655734 0.058684729
-0.00052616349 0.031605721 0.0585576
0.00080332789 0.031620715 0.058662865
0.065751478 0.030507088 0.058169931
0.067385733 0.03153079 0.058610518
-0.00067729253 0.034530949 0.058490947
0.00066442444 0.03457718 0.058749005
0.067533992 0.034467522 0.058545891
-0.00069210376 0.037291996 0.058374822
0.00069981453 0.037548669 0.058623217
0.067438379 0.037392169 0.058492612
-0.00051893754 0.040314909 0.058371775
0.00087188231 0.040620275 0.058544293
0.065784261 0.040894676 0.05824988
0.067215413 0.040437408 0.05866744
-0.00033115596 0.043036513 0.05811708
0.0012904882 0.043588299 0.058547694
0.0030426756 0.044534266 0.05826129
0.065502256 0.043804627 0.058859829
0.066917278 0.043426763 0.058642
0.0017393206 0.046371005 0.058597442
0.0032523866 0.047056198 0.058519155
0.064983271 0.046822757 0.058481403
0.066550776 0.046023723 0.058324292
0.0021946256 0.04902548 0.058321189
0.003846897 0.049797799 0.058475018
0.062850446 0.050001949 0.058634218
0.064402498 0.049507577 0.058461774
0.066124558 0.048264436 0.058717191
0.0027180314 0.051287897 0.057674646
0.0046906755 0.052352976 0.058557112
0.0063795298 0.053126108 0.058527507
0.062009014 0.052716587 0.058495801
0.063537166 0.052158635 0.058577072
0.0054215346 0.054820001 0.058619455
0.0073520034 0.05574562 0.0584649
0.0092689097 0.056616902 0.059732497
0.059346046 0.056220897 0.058449674
0.061243542 0.055231448 0.058557127
0.0082733436 0.058296513 0.0584016
0.010085589 0.058752354 0.058597546
0.012183141 0.05967553 0.058546066
0.056427807 0.059281182 0.058349371
0.058354393 0.058491502 0.058606431
0.060382523 0.057492565 0.058775414
0.011014112 0.060733736 0.058454856
0.013242554 0.061705332 0.058621272
0.015463819 0.062657677 0.058389742
0.053204764 0.062231127 0.05847425
0.055340782 0.061235812 0.058595035
0.057449017 0.060605764 0.058480389
0.014178097 0.063500918 0.058306813
0.016595997 0.064305164 0.058500353
0.019252162 0.0653359 0.05849532
0.021558315 0.065721989 0.059125982
0.04734312 0.065677896 0.058643397
0.049575988 0.064926811 0.058515631
0.052167479 0.063823499 0.058514781
0.054282386 0.063168623 0.058596533
0.019992352 0.066494711 0.058520984
0.02247297 0.067077495 0.058480769
0.025461817 0.067976832 0.058547311
0.028414274 0.068552926 0.058585554
0.031347178 0.068739668 0.058507226
0.034670711 0.068814166 0.058586027
0.037559547 0.068678796 0.058511719
0.040458236 0.068351083 0.058468986
0.04345249 0.0676018 0.058433451
0.046330854 0.066748299 0.058522757
0.048500776 0.066337861 0.05881986
0.026645482 0.06902647 0.059261262
0.029192362 0.06916175 0.058480419
0.031506971 0.069213569 0.058325421
0.034303822 0.069231167 0.05836314
0.037059277 0.069130242 0.05839584
0.039710253 0.069001436 0.057305872
0.02312847 0.0026689416 0.061330304
0.025713103 0.0024235784 0.061350755
0.028452341 0.0019622552 0.061481085
0.031393155 0.0016573989 0.061592817
0.034492426 0.0015543876 0.061420031
0.037498906 0.0018057729 0.061579242
0.040582445 0.0022391146 0.061537594
0.043207385 0.0026431193 0.061493617
0.045240253 0.0029787123 0.060943469
0.017033808 0.0054746689 0.061321951
0.019539047 0.0046217525 0.061453413
0.022256473 0.0037016082 0.061486073
0.024572799 0.0032992412 0.061510529
0.041369941 0.0031361021 0.061903641
0.043909587 0.0034084998 0.06150097
0.046678413 0.0041111913 0.061429948
0.049234197 0.0051049711 0.061497036
0.051590778 0.0058444142 0.061058532
0.011694497 0.0087700319 0.061693609
0.013776861 0.0077736601 0.061414998
0.016386744 0.006715327 0.061362281
0.018394575 0.0061921231 0.061070997
0.050111048 0.0063601485 0.061572254
0.052549146 0.0072725271 0.0614844
0.054719213 0.0082300827 0.06136078
0.0084754322 0.01152811 0.061341755
0.010576022 0.010543885 0.061399788
0.012828563 0.0096625034 0.061639465
0.053700574 0.0093744788 0.061469823
0.055734217 0.0099265277 0.061473683
0.057933729 0.01109494 0.061452422
0.0057325158 0.014638294 0.061098117
0.0076118084 0.013702787 0.06143786
0.0095926272 0.012810575 0.061225988
0.056754664 0.012258098 0.062441587
0.058928993 0.013259034 0.061476145
0.060694564 0.014136695 0.061450027
0.0050126631 0.016696773 0.061497416
0.0068324716 0.01586869 0.06159769
0.059531629 0.015428653 0.061578538
0.061715722 0.016370567 0.061531957
0.063419849 0.017034763 0.061635766
0.0025083181 0.020065743 0.061565302
0.0041802721 0.019448118 0.061404992
0.062417574 0.019110663 0.061324939
0.064106427 0.019588633 0.061549485
0.0020604779 0.022550792 0.061340991
0.0034118372 0.022423165 0.061676357
0.062884994 0.021217525 0.062832355
0.064821124 0.022461418 0.061380308
0.066335641 0.023008943 0.061652221
-0.00029519945 0.026592985 0.062139682
0.0015079686 0.025347561 0.061355576
0.0030017942 0.024994388 0.061570227
0.065343224 0.025256403 0.061257485
0.066737652 0.025798932 0.061403219
-0.00039207606 0.028653145 0.061497591
0.00099161 0.028345915 0.06140551
0.065695569 0.028125396 0.061515242
0.067138128 0.028683318 0.061491609
-0.00055897236 0.031631708 0.061487604
0.00078578159 0.031601559 0.061312307
0.065879487 0.031309031 0.061323076
0.067339458 0.031653181 0.061517183
-0.00075064925 0.034631614 0.061545745
0.000720563 0.034621812 0.061662722
0.065929055 0.033525527 0.060124874
0.067591734 0.03459613 0.06141451
-0.0006139364 0.037398245 0.061414056
0.00071254786 0.037625443 0.061502039
0.065877251 0.037694793 0.060712427
0.067384146 0.037562314 0.061411384
-0.00042896625 0.040300369 0.061649866
0.000826428 0.04058994 0.061486628
0.065678701 0.040559717 0.060860369
0.067270622 0.040585876 0.061490659
-0.00029782703 0.042715941 0.061237331
0.0013072237 0.043393135 0.06123716
0.065450422 0.043708023 0.061217569
0.066876404 0.043379374 0.06147122
0.0018279664 0.046308458 0.061559889
0.0032831982 0.046862569 0.061844904
0.065132685 0.046614897 0.061353963
0.066486463 0.046079107 0.061537746
0.002291814 0.049035739 0.061418619
0.0038155089 0.04975925 0.061468512
0.062561162 0.050349139 0.061125614
0.064386509 0.049432766 0.061442528
0.066197909 0.04871653 0.06107853
0.0027501956 0.051324487 0.062404223
0.0047368892 0.052405834 0.061542682
0.0063512824 0.053300057 0.061572574
0.061983548 0.052715126 0.061638419
0.063571811 0.052146278 0.061555535
0.0055251704 0.054855704 0.06164249
0.007307366 0.055667225 0.061549284
0.0092052519 0.056689978 0.060770005
0.059286375 0.056207303 0.061485328
0.061176177 0.055267572 0.061428607
0.063268602 0.054308742 0.062457204
0.0083436472 0.058055367 0.061488777
0.010210964 0.05886462 0.061400298
0.012259848 0.059647828 0.061456978
0.056457888 0.059336249 0.061492778
0.058485121 0.05834524 0.061476056
0.060440827 0.057346456 0.061314628
0.011141912 0.060771704 0.061473511
0.013421708 0.061861616 0.061445463
0.015581223 0.062676132 0.061801195
0.053194899 0.062272489 0.061550014
0.055420931 0.06119537 0.061392717
0.057521425 0.060298301 0.062067334
0.014308729 0.063692823 0.061413869
0.016640535 0.06431862 0.061379425
0.019252906 0.065289408 0.061470121
0.021342313 0.065798186 0.061448291
0.047227189 0.065702334 0.06135346
0.049566876 0.064919494 0.06147084
0.052217226 0.063778289 0.061571922
0.054415751 0.063130744 0.061757296
0.020102113 0.066511944 0.061394155
0.022362093 0.067001693 0.061393376
0.025496243 0.067948401 0.061470386
0.028374877 0.068524718 0.061419506
0.031253338 0.068714067 0.061517224
0.034438651 0.068789966 0.061376836
0.037599418 0.068651162 0.06139091
0.040521141 0.068345629 0.061379932
0.0435156 0.067535184 0.061430186
0.046332959 0.066753529 0.061598323
0.048474833 0.066412598 0.061671995
0.029265068 0.069069937 0.061740562
0.031567845 0.069180317 0.061259124
0.034321576 0.069236137 0.061590869
0.037037868 0.069128007 0.061509319
0.039353579 0.069117367 0.061602235
0.023001712 0.0027633968 0.064332448
0.025614033 0.002460348 0.064512782
0.028576205 0.0020121231 0.064471617
0.031562027 0.0016755143 0.064419352
0.034494888 0.001579844 0.064370923
0.037603121 0.0018503567 0.064527392
0.040515009 0.002221453 0.064497575
0.042949561 0.0026229757 0.064516179
0.045314427 0.0029495955 0.064200714
0.017034424 0.005517554 0.064488351
0.019575818 0.0045824037 0.064491324
0.022337092 0.0036922859 0.064395413
0.024670573 0.0032686796 0.064395919
0.04144492 0.0030557215 0.065088242
0.043842111 0.0033676131 0.064476684
0.046569314 0.0041035791 0.064588077
0.049211301 0.0051229391 0.064489082
0.051404059 0.0057728826 0.064418033
0.011677077 0.00874185 0.064457826
0.013703923 0.0078537688 0.064448148
0.016197465 0.0067814118 0.064526714
0.018468793 0.0060477555 0.063318491
0.050198548 0.0063902996 0.064454645
0.052545782 0.0072825337 0.064457133
0.054793932 0.0083426014 0.064487316
0.0086343326 0.011432517 0.06456022
0.010610736 0.010510717 0.064449683
0.012723312 0.0096217031 0.06462495
0.05369838 0.0092317853 0.06444411
0.055801991 0.0099934069 0.064555995
0.057925034 0.011076762 0.064447045
0.0057874862 0.014647593 0.064003669
0.0076543782 0.013584071 0.064537719
0.0096178409 0.012728953 0.064249739
0.056877773 0.012063809 0.064709574
0.058976013 0.013285841 0.064438485
0.060683955 0.014051924 0.06450665
0.0050077569 0.016644793 0.06445393
0.0067773839 0.016057447 0.064406864
0.059825089 0.015408114 0.064325191
0.061806317 0.016338665 0.064583562
0.063432999 0.017341139 0.064549126
0.0025415148 0.020324824 0.064377524
0.0041967644 0.019462084 0.064487308
0.062525541 0.01922711 0.064521544
0.064167187 0.019809334 0.06446635
0.0019619206 0.02268366 0.064413585
0.0036569955 0.022126811 0.064278714
0.064895585 0.022514403 0.064463526
0.06622649 0.022861419 0.064540178
-0.00025948882 0.02697891 0.06534189
0.0014114156 0.025422135 0.064555183
0.0031438619 0.024761379 0.064635277
0.065265551 0.025356459 0.064323097
0.066729411 0.025544813 0.064438529
-0.0003591023 0.028643196 0.064610355
0.0010077434 0.028399471 0.064362958
0.065728985 0.028494408 0.064876437
0.067091592 0.028459856 0.064398028
-0.00048851024 0.031671014 0.064561605
0.00075192115 0.031614613 0.064512208
0.065830097 0.03175474 0.064770557
0.067411914 0.031629622 0.064422652
-0.00063165982 0.034549683 0.064325586
0.00071230909 0.034452885 0.064393938
0.067536861 0.034623597 0.064336024
0.069146499 0.034558296 0.063744895
-0.00055673718 0.037143964 0.064691015
0.00078134163 0.037594717 0.064530164
0.065805212 0.03823337 0.064987898
0.067344069 0.037492786 0.064339392
-0.00038268097 0.040449474 0.064587712
0.0009226916 0.040683161 0.064597391
0.065707706 0.040821739 0.064563729
0.067231692 0.040534228 0.064375892
-0.00023873647 0.042956669 0.06465026
0.0013404237 0.043433785 0.064428903
0.06544289 0.043810092 0.064455479
0.066920251 0.043290984 0.06457293
0.0017540131 0.046307493 0.06440597
0.0032996892 0.047103472 0.064338498
0.065120392 0.046448201 0.064342089
0.066449404 0.046193898 0.06448359
0.0022302477 0.049008969 0.064629741
0.0038701249 0.049884848 0.064544849
0.06268733 0.050330773 0.064537473
