# .PCD v0.7 - Point Cloud Data file format
VERSION 0.7
FIELDS x y z rgba
SIZE 4 4 4 4
TYPE F F F U
COUNT 1 1 1 1
WIDTH 1017
HEIGHT 1
VIEWPOINT 0 0 0 1 0 0 0
POINTS 1017
DATA ascii
-0.19206192 -0.00074953958 0.5967412 4278190080
-0.19158976 -0.00076942146 0.59712046 4278190080
-0.19111817 -0.00078927726 0.59749919 4278190080
-0.19068153 -0.00080124289 0.59790426 4278190080
-0.1902457 -0.00081307814 0.5983094 4278190080
-0.18980999 -0.00082496554 0.59871399 4278190080
-0.18937452 -0.00083684549 0.59911835 4278190080
-0.18893965 -0.00084865466 0.59952259 4278190080
-0.18850483 -0.00086051598 0.59992635 4278190080
-0.18811797 -0.00086127967 0.60036826 4278190080
-0.18773411 -0.00086133927 0.60081261 4278190080
-0.1873505 -0.00086133927 0.60125721 4278190080
-0.18696664 -0.00086139888 0.60170162 4278190080
-0.18658285 -0.00086145848 0.60214597 4278190080
-0.1861992 -0.00086145848 0.6025905 4278190080
-0.18581541 -0.00086151809 0.60303491 4278190080
-0.18543153 -0.00086157396 0.60347927 4278190080
-0.18504773 -0.00086163729 0.60392362 4278190080
-0.18466391 -0.00086169317 0.60436797 4278190080
-0.18428029 -0.00086169317 0.60481256 4278190080
-0.18389694 -0.00086163729 0.60525733 4278190080
-0.18351336 -0.00086163729 0.60570192 4278190080
-0.18313001 -0.00086157396 0.60614669 4278190080
-0.18274669 -0.00086151809 0.60659146 4278190080
-0.18236332 -0.00086145848 0.60703623 4278190080
-0.18197997 -0.00086139888 0.60748106 4278190080
-0.18159662 -0.00086133927 0.60792583 4278190080
-0.18121307 -0.00086133927 0.60837042 4278190080
-0.18082972 -0.00086127967 0.60881519 4278190080
-0.18046717 -0.00085609034 0.60927922 4278190080
-0.18013157 -0.00084422529 0.60976839 4278190080
-0.17979546 -0.00083241239 0.61025769 4278190080
-0.17945938 -0.00082053244 0.61074758 4278190080
-0.17912303 -0.00080864131 0.61123782 4278190080
-0.17878623 -0.00079680234 0.61172819 4278190080
-0.17846148 -0.0007818751 0.61223066 4278190080
-0.17815624 -0.0007619448 0.6127528 4278190080
-0.17785068 -0.00074199587 0.61327547 4278190080
-0.17754449 -0.00072208047 0.61379856 4278190080
-0.17723815 -0.00070207939 0.61432248 4278190080
-0.17693146 -0.00068205595 0.61484706 4278190080
-0.17662437 -0.00066200644 0.61537236 4278190080
-0.17631674 -0.0006419979 0.61589795 4278190080
-0.1760089 -0.00062189996 0.6164245 4278190080
-0.17571631 -0.00059776381 0.61696744 4278190080
-0.17552666 -0.00054692104 0.61761677 4278190080
-0.17539001 -0.00048204884 0.61832309 4278190080
-0.17525305 -0.00041685998 0.6190325 4278190080
-0.1751153 -0.00035147369 0.61974442 4278190080
-0.17497729 -0.00028577447 0.62045938 4278190080
-0.17483848 -0.00021987408 0.6211769 4278190080
-0.17469937 -0.00015365332 0.62189758 4278190080
-0.17460985 -7.3939562e-05 0.62267458 4278190080
-0.17457192 1.9889325e-05 0.6235112 4278190080
-0.17453349 0.00011418387 0.62435222 4278190080
-0.17449483 0.00020900369 0.62519795 4278190080
-0.17445622 0.00030441955 0.62604868 4278190080
-0.17441741 0.00040037185 0.62690425 4278190080
-0.17437832 0.00049686804 0.62776458 4278190080
-0.17436819 0.00060176104 0.62866235 4278190080
-0.17446899 0.00073730201 0.62969047 4278190080
-0.17457058 0.00087391585 0.6307267 4278190080
-0.17467299 0.0010116175 0.63177121 4278190080
-0.17477646 0.0011504851 0.6328243 4278190080
-0.17488047 0.0012903996 0.63388562 4278190080
-0.17498539 0.0014314428 0.63495541 4278190080
-0.17525163 0.0016178414 0.63622135 4278190080
-0.17558335 0.0018235371 0.63757443 4278190080
-0.17591891 0.0020316392 0.63894337 4278190080
-0.17625846 0.0022421926 0.64032841 4278190080
-0.21874453 0.0029032938 0.59124124 4278190080
-0.21732102 0.0026887655 0.59111071 4278190080
-0.21591409 0.0024767295 0.59098172 4278190080
-0.21452345 0.0022671521 0.59085429 4278190080
-0.21314876 0.002059985 0.59072816 4278190080
-0.21206559 0.0019147173 0.59077805 4278190080
-0.21099891 0.0017723143 0.59083247 4278190080
-0.20994045 0.0016309768 0.59088629 4278190080
-0.20889069 0.0014908276 0.59093982 4278190080
-0.20784889 0.0013517179 0.59099281 4278190080
-0.20681562 0.0012137666 0.59104556 4278190080
-0.20589103 0.0010989383 0.59116423 4278190080
-0.20504482 0.0010007732 0.59133017 4278190080
-0.20420377 0.00090322271 0.59149545 4278190080
-0.20336707 0.00080615282 0.59165961 4278190080
-0.20253505 0.00070962682 0.59182286 4278190080
-0.201708 0.0006137006 0.59198534 4278190080
-0.20088519 0.00051824749 0.59214675 4278190080
-0.20011581 0.00043421239 0.59234107 4278190080
-0.19942318 0.00036691874 0.59258533 4278190080
-0.19873305 0.00029982626 0.59282845 4278190080
-0.19804583 0.00023305789 0.59307081 4278190080
-0.19736107 0.00016649067 0.59331197 4278190080
-0.19684379 0.00013742596 0.59367031 4278190080
-0.1963277 0.000108473 0.59402812 4278190080
-0.19581194 7.9445541e-05 0.59438503 4278190080
-0.19529785 5.0656497e-05 0.59474188 4278190080
-0.19482054 3.0100346e-05 0.59512454 4278190080
-0.19434376 9.5739961e-06 0.59550673 4278190080
-0.19386761 -1.0933727e-05 0.59588844 4278190080
-0.19339196 -3.1407923e-05 0.59626973 4278190080
-0.19291724 -5.1803887e-05 0.59665072 4278190080
-0.19244303 -7.2170049e-05 0.59703124 4278190080
-0.19196917 -9.2577189e-05 0.5974111 4278190080
-0.19149612 -0.00011289865 0.59779072 4278190080
-0.19110627 -0.00011392683 0.598234 4278190080
-0.19072084 -0.00011392683 0.59868068 4278190080
-0.19033517 -0.00011398643 0.59912723 4278190080
-0.18994974 -0.00011398643 0.59957391 4278190080
-0.18956406 -0.00011404604 0.60002041 4278190080
-0.18917866 -0.00011404604 0.60046715 4278190080
-0.18879296 -0.00011410937 0.60091364 4278190080
-0.18840753 -0.00011410937 0.60136032 4278190080
-0.18802185 -0.00011416897 0.60180676 4278190080
-0.18763642 -0.00011416897 0.6022535 4278190080
-0.18725075 -0.00011422858 0.6027 4278190080
-0.18686531 -0.00011422858 0.60314667 4278190080
-0.18647964 -0.00011428818 0.60359317 4278190080
-0.18609424 -0.00011428818 0.60403991 4278190080
-0.18570854 -0.00011435151 0.60448641 4278190080
-0.18532287 -0.00011441112 0.60493284 4278190080
-0.18493743 -0.00011441112 0.60537958 4278190080
-0.18455227 -0.00011435151 0.6058265 4278190080
-0.18416686 -0.00011435151 0.60627317 4278190080
-0.18378167 -0.00011428818 0.60672009 4278190080
-0.18339624 -0.00011428818 0.60716677 4278190080
-0.1830111 -0.00011422858 0.60761368 4278190080
-0.18262564 -0.00011422858 0.60806042 4278190080
-0.18224047 -0.00011416897 0.60850734 4278190080
-0.18185528 -0.00011410937 0.60895425 4278190080
-0.18146987 -0.00011410937 0.60940099 4278190080
-0.18108444 -0.00011410937 0.60984766 4278190080
-0.18069924 -0.00011404604 0.61029458 4278190080
-0.18031381 -0.00011404604 0.61074126 4278190080
-0.17992862 -0.00011398643 0.61118823 4278190080
-0.17954321 -0.00011398643 0.61163491 4278190080
-0.17915778 -0.00011398643 0.61208159 4278190080
-0.17880635 -0.00010531768 0.61256087 4278190080
-0.17850055 -8.4929168e-05 0.6130845 4278190080
-0.17819412 -6.4574182e-05 0.61360854 4278190080
-0.17788757 -4.4137239e-05 0.61413342 4278190080
-0.17758064 -2.3670495e-05 0.61465895 4278190080
-0.17727311 -3.2447278e-06 0.6151849 4278190080
-0.17696546 1.7266721e-05 0.61571175 4278190080
-0.17665739 3.7804246e-05 0.61623919 4278190080
-0.17636049 6.1370432e-05 0.61677885 4278190080
-0.17608355 9.0304762e-05 0.61734003 4278190080
-0.17580611 0.00011928752 0.6179021 4278190080
-0.17552815 0.00014832243 0.61846507 4278190080
-0.17530274 0.00019140914 0.61908388 4278190080
-0.17516533 0.00025807321 0.61979645 4278190080
-0.17502709 0.00032493845 0.62051153 4278190080
-0.17488857 0.00039212778 0.62122971 4278190080
-0.17474926 0.00045952201 0.62195051 4278190080
-0.17470914 0.00055395812 0.62278068 4278190080
-0.17467144 0.0006496124 0.62361825 4278190080
-0.17463326 0.00074573606 0.62446022 4278190080
-0.17459512 0.00084246695 0.62530714 4278190080
-0.17455651 0.00093967468 0.6261586 4278190080
-0.17451794 0.0010374971 0.62701511 4278190080
-0.17447914 0.0011358708 0.62787646 4278190080
-0.17455162 0.001265388 0.62886727 4278190080
-0.17465332 0.0014037453 0.62989771 4278190080
-0.17475577 0.0015432015 0.63093626 4278190080
-0.17485932 0.0016838387 0.6319834 4278190080
-0.17496343 0.0018255301 0.63303858 4278190080
-0.17506839 0.0019683652 0.63410228 4278190080
-0.17526376 0.0021373741 0.63527852 4278190080
-0.17559472 0.0023455136 0.63662219 4278190080
-0.17592907 0.0025559366 0.63798094 4278190080
-0.17626758 0.0027689002 0.63935596 4278190080
-0.17661011 0.0029843748 0.64074719 4278190080
-0.21921231 0.0036477186 0.59152699 4278190080
-0.21778183 0.0034281686 0.59139419 4278190080
-0.21636845 0.0032112524 0.59126318 4278190080
-0.21497141 0.0029968508 0.59113371 4278190080
-0.21359049 0.0027849264 0.59100568 4278190080
-0.21230803 0.0025935732 0.59093148 4278190080
-0.21123885 0.0024482459 0.59098536 4278190080
-0.21017818 0.0023040771 0.59103882 4278190080
-0.20912568 0.002160985 0.59109169 4278190080
-0.20808174 0.0020190924 0.59114432 4278190080
-0.20704608 0.0018783137 0.59119654 4278190080
-0.20601816 0.0017385781 0.5912481 4278190080
-0.20516951 0.0016381964 0.59141302 4278190080
-0.20432709 0.0015387163 0.59157801 4278190080
-0.20348971 0.0014398508 0.59174222 4278190080
-0.2026567 0.0013414808 0.59190536 4278190080
-0.20182864 0.0012437217 0.59206772 4278190080
-0.20100488 0.0011464395 0.59222901 4278190080
-0.200186 0.0010497607 0.59238964 4278190080
-0.1994826 0.00097887218 0.59262675 4278190080
-0.19883336 0.00091997907 0.59289885 4278190080
-0.19831248 0.00089013204 0.59325916 4278190080
-0.19779246 0.00086033717 0.59361887 4278190080
-0.19727333 0.00083059445 0.59397787 4278190080
-0.1967551 0.00080090016 0.59433639 4278190080
-0.19623749 0.00077119842 0.59469402 4278190080
-0.19572102 0.00074160472 0.59505117 4278190080
-0.19521059 0.00071325153 0.5954116 4278190080
-0.19473232 0.0006922558 0.59579456 4278190080
-0.19425495 0.00067134202 0.59617734 4278190080
-0.19377811 0.00065045804 0.59655964 4278190080
-0.19334804 0.00064042956 0.59697634 4278190080
-0.19296072 0.00064042956 0.59742516 4278190080
-0.19257347 0.00064042956 0.59787405 4278190080
-0.19218619 0.00064042956 0.59832287 4278190080
-0.19179888 0.00064042956 0.59877169 4278190080
-0.19141136 0.00064036623 0.5992204 4278190080
-0.19102411 0.00064036623 0.59966922 4278190080
-0.19063653 0.0006403029 0.60011786 4278190080
-0.19024928 0.0006403029 0.60056674 4278190080
-0.18986197 0.0006403029 0.60101557 4278190080
-0.18947445 0.00064024329 0.60146415 4278190080
-0.18917711 0.00066198781 0.60198617 4278190080
-0.18895485 0.00070206448 0.60257059 4278190080
-0.18865998 0.00072469935 0.60309702 4278190080
-0.18832977 0.000738848 0.60359508 4278190080
-0.18799959 0.00075307116 0.60409379 4278190080
-0.18766882 0.00076724216 0.60459268 4278190080
-0.18733804 0.00078148767 0.60509223 4278190080
-0.18700676 0.00079568475 0.60559195 4278190080
-0.1866755 0.00080995262 0.60609233 4278190080
-0.18626474 0.00080461055 0.60652483 4278190080
-0.18581821 0.00079034269 0.6069259 4278190080
-0.18537234 0.00077615306 0.60732698 4278190080
-0.18492655 0.00076191127 0.60772747 4278190080
-0.18448137 0.00074774399 0.60812783 4278190080
-0.18403633 0.00073352456 0.60852766 4278190080
-0.18359189 0.00071938336 0.60892737 4278190080
-0.18307568 0.00068700686 0.60926163 4278190080
-0.18253024 0.00064703077 0.60956776 4278190080
-0.18211617 0.00064024329 0.60999227 4278190080
-0.18172915 0.0006403029 0.61044139 4278190080
-0.1813419 0.0006403029 0.61089021 4278190080
-0.18095462 0.0006403029 0.61133909 4278190080
-0.18056755 0.00064036623 0.61178815 4278190080
-0.18018027 0.00064036623 0.61223698 4278190080
-0.17979299 0.00064036623 0.61268586 4278190080
-0.17940594 0.00064042956 0.61313492 4278190080
-0.17901869 0.00064042956 0.6135838 4278190080
-0.17863117 0.00064036623 0.61403239 4278190080
-0.17824389 0.00064036623 0.61448121 4278190080
-0.17792471 0.00065824762 0.61499697 4278190080
-0.17761682 0.0006792061 0.61552477 4278190080
-0.17730857 0.00070018694 0.61605322 4278190080
-0.17700724 0.00072313473 0.61658955 4278190080
-0.17673026 0.0007526949 0.61715162 4278190080
-0.17645283 0.00078230724 0.6177147 4278190080
-0.17617491 0.00081196427 0.61827868 4278190080
-0.17589653 0.00084167719 0.61884367 4278190080
-0.17561762 0.00087144226 0.61940956 4278190080
-0.17533852 0.00090131909 0.61997676 4278190080
-0.1750772 0.0009361878 0.62056404 4278190080
-0.17493846 0.0010045469 0.62128234 4278190080
-0.17484614 0.0010859519 0.62205327 4278190080
-0.17480862 0.0011828318 0.6228869 4278190080
-0.17477114 0.0012803152 0.62372541 4278190080
-0.17473321 0.0013782792 0.62456834 4278190080
-0.17469536 0.0014768615 0.62541622 4278190080
-0.17465697 0.0015759319 0.62626863 4278190080
-0.17461868 0.0016756244 0.62712622 4278190080
-0.17463386 0.0017908402 0.62804824 4278190080
-0.17473561 0.001930926 0.62907279 4278190080
-0.17483813 0.0020721182 0.6301055 4278190080
-0.17494173 0.0022145025 0.63114667 4278190080
-0.17504592 0.0023579523 0.63219583 4278190080
-0.17515095 0.0025025569 0.63325351 4278190080
-0.17527576 0.0026536919 0.63434148 4278190080
-0.17560579 0.0028641634 0.63567555 4278190080
-0.17593941 0.0030770116 0.63702488 4278190080
-0.1762767 0.0032922812 0.63838971 4278190080
-0.17661816 0.0035101511 0.63977087 4278190080
-0.17696367 0.0037306026 0.6411683 4278190080
-0.21981265 0.0044249296 0.59189367 4278190080
-0.21824543 0.0041716583 0.59167939 4278190080
-0.2168255 0.0039498061 0.59154642 4278190080
-0.21542175 0.003730461 0.59141469 4278190080
-0.21403457 0.0035137273 0.59128475 4278190080
-0.21266334 0.0032994859 0.59115624 4278190080
-0.2114795 0.0031261556 0.59113866 4278190080
-0.21041633 0.0029790737 0.59119165 4278190080
-0.20936163 0.0028331578 0.5912441 4278190080
-0.20831494 0.0026883297 0.59129602 4278190080
-0.20727684 0.0025447123 0.59134769 4278190080
-0.20624687 0.0024022236 0.59139901 4278190080
-0.20529439 0.0022766292 0.59149593 4278190080
-0.20445095 0.0021752678 0.59166086 4278190080
-0.20361258 0.0020745471 0.59182495 4278190080
-0.20277859 0.0019743219 0.59198797 4278190080
-0.20194952 0.0018747188 0.59215027 4278190080
-0.20112477 0.0017756075 0.5923115 4278190080
-0.20035191 0.0016879626 0.5925045 4278190080
-0.1997944 0.001649715 0.59284407 4278190080
-0.19927071 0.0016191266 0.59320575 4278190080
-0.19874795 0.0015885904 0.59356683 4278190080
-0.19822605 0.0015581064 0.59392726 4278190080
-0.19770508 0.0015276782 0.5942871 4278190080
-0.19718494 0.0014972985 0.59464633 4278190080
-0.19666575 0.0014669746 0.59500492 4278190080
-0.19614719 0.0014366359 0.59536272 4278190080
-0.19562976 0.0014064126 0.59572005 4278190080
-0.19522195 0.0014019981 0.59615731 4278190080
-0.19483282 0.0014019981 0.59660834 4278190080
-0.19444366 0.0014019981 0.59705937 4278190080
-0.19405453 0.0014019981 0.59751034 4278190080
-0.19366537 0.0014019981 0.59796137 4278190080
-0.19327621 0.0014019981 0.59841239 4278190080
-0.19288711 0.0014019981 0.59886342 4278190080
-0.19249792 0.0014019981 0.59931445 4278190080
-0.19222303 0.0014296509 0.59985471 4278190080
-0.19205324 0.0014829636 0.60047895 4278190080
-0.19183265 0.0015241988 0.60106522 4278190080
-0.19161154 0.0015655309 0.60165286 4278190080
-0.19139017 0.0016070232 0.60224205 4278190080
-0.19116803 0.001648549 0.6028325 4278190080
-0.1909454 0.0016901717 0.60342425 4278190080
-0.19072239 0.0017319582 0.60401762 4278190080
-0.19049872 0.0017737783 0.60461223 4278190080
-0.19019531 0.0017960668 0.60514259 4278190080
-0.18986125 0.0018108524 0.60564828 4278190080
-0.18952717 0.0018257163 0.60615462 4278190080
-0.18919258 0.0018405281 0.6066612 4278190080
-0.18885796 0.0018554181 0.60716838 4278190080
-0.1885228 0.0018702522 0.60767579 4278190080
-0.18810631 0.0018646717 0.60811377 4278190080
-0.18765338 0.0018498413 0.60851973 4278190080
-0.18720059 0.0018349551 0.60892522 4278190080
-0.18674843 0.0018201508 0.60933053 4278190080
-0.18629636 0.0018052906 0.60973531 4278190080
-0.18584494 0.0017905049 0.61013997 4278190080
-0.18532495 0.0017580427 0.61048245 4278190080
-0.18476938 0.0017162599 0.61079127 4278190080
-0.18421514 0.0016745739 0.61109936 4278190080
-0.18366195 0.0016329251 0.61140656 4278190080
-0.18311037 0.0015914366 0.61171329 4278190080
-0.18255998 0.0015500449 0.61201924 4278190080
-0.1820107 0.0015086867 0.6123243 4278190080
-0.1814629 0.0014674887 0.61262882 4278190080
-0.18084158 0.0014067329 0.61286193 4278190080
-0.18043436 0.0014019981 0.61329591 4278190080
-0.1800452 0.0014019981 0.61374688 4278190080
-0.17965631 0.0014020652 0.61419821 4278190080
-0.17926715 0.0014020652 0.61464918 4278190080
-0.17887802 0.0014020652 0.6151002 4278190080
-0.17848863 0.0014019981 0.61555099 4278190080
-0.17809947 0.0014019981 0.61600196 4278190080
-0.17771031 0.0014019981 0.61645299 4278190080
-0.17737959 0.0014177412 0.61696255 4278190080
-0.17710216 0.0014479794 0.61752653 4278190080
-0.17682426 0.0014782771 0.61809146 4278190080
-0.17654583 0.0015086196 0.61865747 4278190080
-0.17626698 0.001539018 0.61922437 4278190080
-0.17598787 0.0015695319 0.61979252 4278190080
-0.17570801 0.0016000345 0.62036139 4278190080
-0.17542769 0.0016305931 0.62093127 4278190080
-0.17515421 0.0016632117 0.62150979 4278190080
-0.17494549 0.0017139837 0.62215871 4278190080
-0.17490822 0.0018126853 0.62299323 4278190080
-0.17487101 0.0019120052 0.6238327 4278190080
-0.17483331 0.0020118132 0.62467659 4278190080
-0.17479569 0.0021122508 0.62552547 4278190080
-0.17475758 0.0022131875 0.62637889 4278190080
-0.17471951 0.0023147613 0.62723744 4278190080
-0.1748175 0.0024554767 0.62825203 4278190080
-0.17492035 0.0025984533 0.6292792 4278190080
-0.17502379 0.0027424991 0.63031417 4278190080
-0.17512806 0.0028876886 0.63135743 4278190080
-0.17523313 0.0030340403 0.63240898 4278190080
-0.17533927 0.0031816363 0.63346928 4278190080
-0.1756168 0.0033795908 0.63473481 4278190080
-0.17594944 0.0035947636 0.63607442 4278190080
-0.17628594 0.0038124435 0.63742971 4278190080
-0.17662643 0.0040326752 0.63880086 4278190080
-0.17697062 0.0042554326 0.64018786 4278190080
-0.17758273 0.0045581572 0.64190555 4278190080
-0.22073059 0.0052779242 0.59245437 4278190080
-0.21871127 0.0049191155 0.59196597 4278190080
-0.21728478 0.0046922788 0.59183085 4278190080
-0.21587493 0.0044680908 0.59169739 4278190080
-0.21448134 0.0042464957 0.59156549 4278190080
-0.21310364 0.004027389 0.59143484 4278190080
-0.21174194 0.0038108639 0.59130591 4278190080
-0.21065517 0.0036560409 0.59134483 4278190080
-0.20959793 0.0035072193 0.59139681 4278190080
-0.20854913 0.0033595785 0.59144837 4278190080
-0.20750834 0.0032130331 0.59149933 4278190080
-0.20647599 0.0030677132 0.59155011 4278190080
-0.20545171 0.0029235259 0.59160048 4278190080
-0.20457499 0.0028128289 0.59174383 4278190080
-0.2037356 0.0027102381 0.59190786 4278190080
-0.2029006 0.002608154 0.59207076 4278190080
-0.20207058 0.0025067031 0.59223294 4278190080
-0.2014107 0.0024445876 0.59250802 4278190080
-0.20084338 0.0024038926 0.59284472 4278190080
-0.20027755 0.002363354 0.59318078 4278190080
-0.1997128 0.0023228414 0.59351599 4278190080
-0.19918586 0.0022910796 0.59387624 4278190080
-0.19866209 0.0022599027 0.59423751 4278190080
-0.19813927 0.0022287741 0.59459811 4278190080
-0.19761728 0.0021977052 0.59495807 4278190080
-0.19711463 0.002171088 0.59533077 4278190080
-0.1967236 0.002171088 0.59578401 4278190080
-0.19633256 0.002171088 0.59623718 4278190080
-0.19594125 0.002171021 0.59669018 4278190080
-0.19555022 0.002171021 0.59714341 4278190080
-0.19515918 0.002171021 0.59759659 4278190080
-0.19476815 0.002171021 0.59804976 4278190080
-0.19439463 0.0021752901 0.59851635 4278190080
-0.19426067 0.0022380687 0.59916657 4278190080
-0.19412597 0.0023010001 0.59981883 4278190080
-0.19399102 0.0023642182 0.60047364 4278190080
-0.19385563 0.0024276599 0.60113072 4278190080
-0.19371979 0.0024913214 0.60179007 4278190080
-0.19358341 0.0025552101 0.6024518 4278190080
-0.19342624 0.0026142746 0.60309964 4278190080
-0.19320397 0.0026574694 0.60369778 4278190080
-0.19298147 0.0027008355 0.60429752 4278190080
-0.19275819 0.0027442351 0.60489851 4278190080
-0.19253434 0.002787739 0.60550094 4278190080
-0.1923102 0.0028314143 0.60610503 4278190080
-0.19208531 0.0028751232 0.60671031 4278190080
-0.19177301 0.0028969869 0.60724455 4278190080
-0.19143499 0.0029124394 0.60775816 4278190080
-0.19109701 0.0029279776 0.60827243 4278190080
-0.19075842 0.0029434599 0.60878682 4278190080
-0.19041984 0.0029590204 0.60930192 4278190080
-0.18999748 0.0029531941 0.6097455 4278190080
-0.18953745 0.0029376335 0.61015606 4278190080
-0.18907808 0.0029221587 0.61056644 4278190080
-0.18861879 0.002906628 0.61097628 4278190080
-0.1881602 0.0028911792 0.611386 4278190080
-0.18763636 0.0028586797 0.61173689 4278190080
-0.18707038 0.0028150082 0.61204851 4278190080
-0.18650575 0.0027714372 0.6123594 4278190080
-0.18594219 0.0027279072 0.61266935 4278190080
-0.18538029 0.0026845448 0.61297876 4278190080
-0.18481968 0.0026412867 0.61328745 4278190080
-0.18424948 0.0025952384 0.61358523 4278190080
-0.18361254 0.0025312081 0.61381865 4278190080
-0.18297778 0.0024674051 0.61405128 4278190080
-0.18234552 0.0024038926 0.61428332 4278190080
-0.18171524 0.0023405366 0.61451429 4278190080
-0.18108718 0.0022773966 0.61474448 4278190080
-0.18046133 0.0022144839 0.61497384 4278190080
-0.17990907 0.002171088 0.61527169 4278190080
-0.17951803 0.002171088 0.61572492 4278190080
-0.17912702 0.002171088 0.61617815 4278190080
-0.17873596 0.002171088 0.61663133 4278190080
-0.17834516 0.0021711513 0.61708474 4278190080
-0.17795436 0.0021712184 0.61753821 4278190080
-0.17756309 0.0021711513 0.61799121 4278190080
-0.17719783 0.0021782443 0.61847049 4278190080
-0.17691915 0.0022093505 0.61903864 4278190080
-0.17663983 0.0022404417 0.61960751 4278190080
-0.17635998 0.0022715852 0.62017739 4278190080
-0.17607966 0.0023027845 0.62074828 4278190080
-0.17581306 0.0023380145 0.62133497 4278190080
-0.17556441 0.0023784973 0.62194234 4278190080
-0.17531539 0.0024191327 0.62255126 4278190080
-0.17506586 0.0024598613 0.62316161 4278190080
-0.174971 0.0025446825 0.62394023 4278190080
-0.17493361 0.0026463419 0.62478507 4278190080
-0.17489621 0.0027486421 0.62563497 4278190080
-0.17485836 0.002851449 0.62648934 4278190080
-0.17489922 0.002977483 0.62743562 4278190080
-0.17500192 0.0031220913 0.62845671 4278190080
-0.17510538 0.0032678433 0.62948585 4278190080
-0.1752097 0.0034147538 0.6305232 4278190080
-0.17531483 0.0035628341 0.63156879 4278190080
-0.17542107 0.0037121736 0.63262302 4278190080
-0.17562772 0.0038918257 0.63379985 4278190080
-0.17595941 0.0041092858 0.63512993 4278190080
-0.17629492 0.0043292753 0.63647544 4278190080
-0.17663437 0.0045518316 0.63783669 4278190080
-0.1769778 0.0047770105 0.63921398 4278190080
-0.17748295 0.0050516948 0.64079404 4278190080
-0.17827921 0.0054149292 0.64273489 4278190080
-0.22165872 0.006140098 0.59302127 4278190080
-0.21961157 0.0057694688 0.59251976 4278190080
-0.21774648 0.0054387748 0.59211695 4278190080
-0.2163301 0.0052096173 0.59198141 4278190080
-0.21493022 0.0049831197 0.59184748 4278190080
-0.21354653 0.0047592446 0.59171504 4278190080
-0.21217869 0.0045379363 0.59158421 4278190080
-0.21089469 0.0043349862 0.59149855 4278190080
-0.20983498 0.0041832477 0.59154999 4278190080
-0.20878373 0.0040327087 0.59160101 4278190080
-0.20774074 0.0038833581 0.59165162 4278190080
-0.2067057 0.0037351176 0.59170169 4278190080
-0.20567904 0.0035881102 0.59175152 4278190080
-0.20469926 0.0034513921 0.59182692 4278190080
-0.20385884 0.0033469237 0.59199083 4278190080
-0.2030506 0.0032495558 0.59217244 4278190080
-0.2024783 0.0032077283 0.59251136 4278190080
-0.20190762 0.0031660646 0.59284973 4278190080
-0.20133789 0.0031244233 0.59318709 4278190080
-0.2007698 0.0030829459 0.59352392 4278190080
-0.20020263 0.0030414946 0.59385973 4278190080
-0.19963704 0.0030002035 0.59419501 4278190080
-0.19910099 0.0029658154 0.59454972 4278190080
-0.19863282 0.0029476695 0.59495163 4278190080
-0.19823985 0.0029476695 0.59540701 4278190080
-0.1978469 0.0029476695 0.59586239 4278190080
-0.19745402 0.0029476695 0.59631783 4278190080
-0.19706108 0.0029476695 0.59677327 4278190080
-0.19666813 0.0029476695 0.59722865 4278190080
-0.1962993 0.0029536039 0.59770209 4278190080
-0.1962197 0.0030307882 0.5983929 4278190080
-0.19613974 0.0031082965 0.59908658 4278190080
-0.19605865 0.0031859279 0.59978259 4278190080
-0.19592609 0.0032511987 0.60044241 4278190080
-0.19579308 0.0033167042 0.60110456 4278190080
-0.19565926 0.0033823736 0.60176879 4278190080
-0.19552533 0.0034483448 0.60243565 4278190080
-0.1953909 0.0035145506 0.60310489 4278190080
-0.19525595 0.0035809912 0.60377651 4278190080
-0.19512056 0.0036476701 0.60445046 4278190080
-0.19498466 0.0037145875 0.60512692 4278190080
-0.19484077 0.0037798434 0.60579967 4278190080
-0.19461717 0.0038251653 0.60641038 4278190080
-0.1943927 0.0038705282 0.60702229 4278190080
-0.19416766 0.0039160028 0.60763574 4278190080
-0.19394241 0.00396166 0.60825086 4278190080
-0.1937163 0.0040073544 0.60886717 4278190080
-0.19339482 0.004028704 0.6094054 4278190080
-0.19305281 0.0040448643 0.60992706 4278190080
-0.19271077 0.0040611029 0.61044943 4278190080
-0.19236813 0.0040772855 0.61097205 4278190080
-0.19193976 0.0040711947 0.61142129 4278190080
-0.19147287 0.0040550195 0.61183691 4278190080
-0.19100617 0.0040387847 0.612252 4278190080
-0.19054015 0.0040226318 0.61266685 4278190080
-0.19001277 0.0039902329 0.61302674 4278190080
-0.18943574 0.0039445087 0.61334097 4278190080
-0.18886037 0.0038989633 0.61365461 4278190080
-0.18828638 0.0038535334 0.61396754 4278190080
-0.18771352 0.003808137 0.61427951 4278190080
-0.18711834 0.0037565157 0.61456895 4278190080
-0.18646668 0.0036894493 0.61480415 4278190080
-0.18581735 0.0036226176 0.61503851 4278190080
-0.18517061 0.0035560988 0.61527222 4278190080
-0.18452586 0.0034897476 0.61550492 4278190080
-0.18388344 0.0034236275 0.61573672 4278190080
-0.18324332 0.0033577457 0.61596781 4278190080
-0.18260567 0.0032921657 0.61619824 4278190080
-0.18197004 0.0032267459 0.6164276 4278190080
-0.18131997 0.0031569898 0.61664009 4278190080
-0.18064256 0.0030792765 0.61682254 4278190080
-0.17996798 0.0030018911 0.61700428 4278190080
-0.17937891 0.0029477365 0.61726701 4278190080
-0.17898621 0.0029478036 0.61772269 4278190080
-0.17859353 0.0029478744 0.61817837 4278190080
-0.17820056 0.0029478744 0.61863375 4278190080
-0.17780738 0.0029478036 0.61908895 4278190080
-0.17741419 0.0029477365 0.61954415 4278190080
-0.17702101 0.0029476695 0.61999929 4278190080
-0.17673422 0.002977699 0.62056446 4278190080
-0.17647466 0.0030156225 0.62115943 4278190080
-0.17622645 0.0030570179 0.62176812 4278190080
-0.17597745 0.0030984394 0.62237787 4278190080
-0.17572813 0.0031400174 0.6229893 4278190080
-0.175478 0.0031816252 0.62360179 4278190080
-0.1752276 0.0032233931 0.62421596 4278190080
-0.17503402 0.0032818653 0.62489372 4278190080
-0.17499688 0.0033860318 0.62574458 4278190080
-0.17498031 0.0034968294 0.62662297 4278190080
-0.17508307 0.0036431178 0.62763834 4278190080
-0.17518659 0.0037905611 0.62866169 4278190080
-0.17529099 0.0039391704 0.62969315 4278190080
-0.17539617 0.004088968 0.63073283 4278190080
-0.17550246 0.0042400248 0.6317811 4278190080
-0.1756386 0.0044008903 0.63287073 4278190080
-0.17596927 0.0046206117 0.63419127 4278190080
-0.17630383 0.0048428737 0.63552719 4278190080
-0.17664224 0.0050677285 0.63687861 4278190080
-0.17698462 0.005295217 0.63824594 4278190080
-0.17738391 0.0055413023 0.63969147 4278190080
-0.17817606 0.0059076473 0.64161426 4278190080
-0.17898287 0.0062808022 0.64357287 4278190080
-0.22259639 0.0070114508 0.59359401 4278190080
-0.22052996 0.0066307895 0.59308469 4278190080
-0.21850179 0.0062571764 0.59258485 4278190080
-0.2167878 0.0059551485 0.59226692 4278190080
-0.21538149 0.0057236962 0.59213096 4278190080
-0.21399145 0.0054949299 0.59199655 4278190080
-0.21261744 0.005268801 0.59186375 4278190080
-0.21125923 0.0050452612 0.59173238 4278190080
-0.21007271 0.0048612431 0.59170353 4278190080
-0.20901893 0.0047077909 0.59175408 4278190080
-0.20797355 0.0045555569 0.59180415 4278190080
-0.20693637 0.0044045188 0.59185386 4278190080
-0.20590709 0.0042545944 0.59190297 4278190080
-0.20488612 0.0041059181 0.59195191 4278190080
-0.20413135 0.0040204227 0.59217435 4278190080
-0.2035556 0.0039776079 0.59251493 4278190080
-0.20298089 0.0039348155 0.5928545 4278190080
-0.20240779 0.0038921945 0.59319359 4278190080
-0.20183595 0.0038496666 0.59353185 4278190080
-0.20126514 0.0038071685 0.59386915 4278190080
-0.20069592 0.0037648343 0.59420592 4278190080
-0.20016615 0.0037319362 0.59456885 4278190080
-0.19977154 0.003732007 0.59502673 4278190080
-0.19937699 0.0037320741 0.59548461 4278190080
-0.1989821 0.0037320741 0.59594226 4278190080
-0.19858725 0.0037320741 0.5963999 4278190080
-0.19819237 0.0037320741 0.59685755 4278190080
-0.19792525 0.0037637949 0.59740919 4278190080
-0.19784833 0.0038430542 0.59810299 4278190080
-0.19777139 0.0039227195 0.5988 4278190080
-0.19769411 0.0040027201 0.59949994 4278190080
-0.1976165 0.0040830635 0.60020286 4278190080
-0.19753857 0.0041637532 0.60090876 4278190080
-0.19746031 0.004244782 0.60161769 4278190080
-0.19738172 0.004326161 0.60232973 4278190080
-0.19730277 0.0044078901 0.60304475 4278190080
-0.19722353 0.0044899695 0.60376287 4278190080
-0.19710051 0.0045613386 0.60444993 4278190080
-0.19696708 0.0046304353 0.60513169 4278190080
-0.19683321 0.0046997815 0.60581595 4278190080
-0.19669886 0.0047693774 0.60650265 4278190080
-0.19656403 0.0048392266 0.60719192 4278190080
-0.1964284 0.0049092546 0.60788339 4278190080
-0.19629253 0.0049796142 0.60857761 4278190080
-0.19607355 0.0050287358 0.60920626 4278190080
-0.19584741 0.005076278 0.60983104 4278190080
-0.19562097 0.0051240064 0.6104576 4278190080
-0.19539376 0.0051717758 0.61108547 4278190080
-0.19506271 0.0051925331 0.61162752 4278190080
-0.1947165 0.0052094236 0.61215758 4278190080
-0.19437037 0.0052263997 0.6126883 4278190080
-0.19393574 0.0052200444 0.6131435 4278190080
-0.19346134 0.0052030683 0.6135639 4278190080
-0.19298761 0.0051861852 0.61398411 4278190080
-0.1924565 0.0051538795 0.61435312 4278190080
-0.19186829 0.0051060729 0.61467016 4278190080
-0.19128175 0.0050584599 0.6149866 4278190080
-0.1906967 0.0050109662 0.61530232 4278190080
-0.19007482 0.004953254 0.61558276 4278190080
-0.18940784 0.0048829913 0.61581969 4278190080
-0.18874331 0.0048129819 0.61605573 4278190080
-0.18808116 0.0047432296 0.61629093 4278190080
-0.18742169 0.0046737976 0.61652553 4278190080
-0.18676431 0.0046045482 0.61675906 4278190080
-0.18610935 0.0045355447 0.61699176 4278190080
-0.18542929 0.0044592358 0.61719769 4278190080
-0.18473046 0.0043772906 0.61738235 4278190080
-0.18403463 0.0042956956 0.61756623 4278190080
-0.18334179 0.004214447 0.61774939 4278190080
-0.18265186 0.0041335411 0.61793172 4278190080
-0.18196489 0.0040529855 0.61811328 4278190080
-0.18128084 0.0039727688 0.61829406 4278190080
-0.1805997 0.0038928911 0.61847407 4278190080
-0.1799214 0.0038133524 0.61865336 4278190080
-0.17924599 0.003734149 0.61883187 4278190080
-0.17884432 0.0037322119 0.61928266 4278190080
-0.1784492 0.0037321411 0.61974007 4278190080
-0.17805408 0.0037320741 0.62019747 4278190080
-0.17765893 0.003732007 0.62065488 4278190080
-0.17726384 0.0037319362 0.62111223 4278190080
-0.17689107 0.0037383027 0.62159288 4278190080
-0.17664254 0.0037806444 0.62220401 4278190080
-0.17639321 0.0038230158 0.62281621 4278190080
-0.17614354 0.0038655512 0.62343013 4278190080
-0.17589308 0.0039081126 0.62404513 4278190080
-0.1756423 0.0039508417 0.62466174 4278190080
-0.17539069 0.0039935969 0.62527955 4278190080
-0.17513877 0.0040365197 0.62589902 4278190080
-0.17516382 0.0041615553 0.62682402 4278190080
-0.1752674 0.0043106712 0.62784159 4278190080
-0.17537183 0.0044609644 0.62886727 4278190080
-0.17547707 0.0046124496 0.62990105 4278190080
-0.17558341 0.0047652125 0.6309433 4278190080
-0.17569038 0.0049191229 0.63199365 4278190080
-0.17597912 0.0051287673 0.63325846 4278190080
-0.17631269 0.0053532757 0.63458478 4278190080
-0.17665036 0.0055804662 0.63592684 4278190080
-0.17699145 0.0058101565 0.63728404 4278190080
-0.17733683 0.0060426258 0.63865733 4278190080
-0.17807405 0.0063964985 0.64050281 4278190080
-0.17887659 0.0067727305 0.64244318 4278190080
-0.17969437 0.0071560852 0.64442021 4278190080
-0.22354461 0.0078922845 0.59417319 4278190080
-0.22145785 0.0075012371 0.59365547 4278190080
-0.21941032 0.0071175471 0.59314764 4278190080
-0.21740051 0.0067409277 0.59264916 4278190080
-0.21583553 0.0064683445 0.59241623 4278190080
-0.21443881 0.0062345564 0.59227961 4278190080
-0.21305855 0.0060035549 0.59214473 4278190080
-0.21169417 0.0057751983 0.59201145 4278190080
-0.21034537 0.0055494569 0.59187973 4278190080
-0.20925488 0.0053848401 0.59190756 4278190080
-0.20820703 0.0052297004 0.59195715 4278190080
-0.20716746 0.0050757825 0.59200633 4278190080
-0.20613609 0.0049230754 0.59205508 4278190080
-0.20530178 0.0048175864 0.5922299 4278190080
-0.20468064 0.0047635846 0.59254432 4278190080
-0.20406388 0.0047103763 0.59285963 4278190080
-0.20348673 0.0046666153 0.59319991 4278190080
-0.20291118 0.0046230294 0.59353971 4278190080
-0.20233695 0.0045795366 0.59387869 4278190080
-0.20176373 0.0045360699 0.5942167 4278190080
-0.2013178 0.0045239218 0.59464234 4278190080
-0.20092122 0.0045239963 0.59510243 4278190080
-0.2005247 0.004524067 0.59556252 4278190080
-0.20012821 0.0045241341 0.59602261 4278190080
-0.19973166 0.0045242049 0.59648275 4278190080
-0.19952776 0.0045726262 0.59708267 4278190080
-0.19947682 0.0046598241 0.59779632 4278190080
-0.19942169 0.004746411 0.59851032 4278190080
-0.19934751 0.0048286244 0.5992136 4278190080
-0.19927303 0.0049111918 0.59991997 4278190080
-0.1991982 0.0049941093 0.60062927 4278190080
-0.19912307 0.0050773919 0.60134161 4278190080
-0.19904731 0.0051609538 0.60205686 4278190080
-0.19897152 0.0052449517 0.60277545 4278190080
-0.19889541 0.0053293146 0.60349709 4278190080
-0.19881897 0.0054140389 0.60422188 4278190080
-0.19874217 0.0054991357 0.60494977 4278190080
-0.19866507 0.0055846013 0.60568088 4278190080
-0.19858758 0.0056704395 0.60641515 4278190080
-0.1985098 0.0057566576 0.6071527 4278190080
-0.19843166 0.0058432482 0.60789341 4278190080
-0.19831999 0.0059215203 0.60861057 4278190080
-0.19818629 0.0059944391 0.60931301 4278190080
-0.19805177 0.0060675479 0.61001784 4278190080
-0.19791709 0.0061410032 0.61072552 4278190080
-0.19778194 0.0062147304 0.61143577 4278190080
-0.19757573 0.00627001 0.61208975 4278190080
-0.19734795 0.0063198358 0.61272794 4278190080
-0.19711955 0.0063697882 0.61336768 4278190080
-0.19677852 0.0063898489 0.61391354 4278190080
-0.19642814 0.0064075142 0.61445224 4278190080
-0.19598715 0.0064008683 0.61491352 4278190080
-0.19550548 0.0063832141 0.61533916 4278190080
-0.19497068 0.0063510723 0.61571765 4278190080
-0.19437079 0.0063010901 0.61603755 4278190080
-0.19377278 0.0062513091 0.61635691 4278190080
-0.19312267 0.0061870292 0.61662769 4278190080
-0.19244008 0.0061134808 0.61686665 4278190080
-0.19175966 0.0060401298 0.61710441 4278190080
-0.19108181 0.0059670471 0.61734134 4278190080
-0.19040667 0.0058943033 0.61757761 4278190080
-0.18969403 0.0058107488 0.61777616 4278190080
-0.18897264 0.0057242997 0.61796314 4278190080
-0.18825443 0.0056382269 0.61814922 4278190080
-0.18753938 0.0055525303 0.61833453 4278190080
-0.18682741 0.0054671988 0.61851901 4278190080
-0.18611853 0.0053822398 0.61870271 4278190080
-0.18541272 0.0052976534 0.61888558 4278190080
-0.18470992 0.005213432 0.61906767 4278190080
-0.18401016 0.0051295683 0.61924899 4278190080
-0.18331344 0.0050460622 0.61942959 4278190080
-0.18261965 0.0049629211 0.6196093 4278190080
-0.18192886 0.0048801303 0.61978829 4278190080
-0.18124099 0.0047976971 0.61996657 4278190080
-0.18055238 0.0047145374 0.62014031 4278190080
-0.17985059 0.0046270937 0.62029707 4278190080
-0.17915203 0.0045400485 0.62045312 4278190080
-0.17870046 0.0045242049 0.62085748 4278190080
-0.17830341 0.0045241341 0.62131715 4278190080
-0.17790635 0.004524067 0.62177682 4278190080
-0.17750908 0.0045239218 0.62223619 4278190080
-0.17711203 0.004523851 0.62269586 4278190080
-0.17681162 0.0045522787 0.6232574 4278190080
-0.17656162 0.0045957789 0.62387377 4278190080
-0.17631084 0.0046393089 0.62449127 4278190080
-0.17605971 0.0046830066 0.62511045 4278190080
-0.17581835 0.0047298931 0.6257422 4278190080
-0.17559949 0.0047838017 0.62640065 4278190080
-0.17538002 0.0048378594 0.62706095 4278190080
-0.17545229 0.0049801432 0.6280455 4278190080
-0.17555781 0.0051333755 0.62907368 4278190080
-0.17566398 0.0052877516 0.63010979 4278190080
-0.17577097 0.0054433569 0.63115418 4278190080
-0.1759889 0.0056337863 0.63233143 4278190080
-0.17632169 0.005860582 0.63364857 4278190080
-0.17665814 0.006089922 0.63498068 4278190080
-0.17699845 0.0063219368 0.63632834 4278190080
-0.17734276 0.0065566711 0.6376918 4278190080
-0.17797251 0.0068813749 0.63940001 4278190080
-0.17877118 0.0072607026 0.64132249 4278190080
-0.17958464 0.0076470971 0.64328098 4278190080
-0.18050914 0.008070752 0.64539051 4278190080
-0.22543742 0.0090063959 0.59532928 4278190080
-0.22239609 0.0083811209 0.59423262 4278190080
-0.22032882 0.0079871602 0.59371668 4278190080
-0.21829955 0.0076004192 0.5932101 4278190080
-0.21630786 0.0072208606 0.592713 4278190080
-0.21488886 0.0069782361 0.59256434 4278190080
-0.213502 0.0067422278 0.59242731 4278190080
-0.21213146 0.0065090135 0.59229207 4278190080
-0.21077658 0.0062784739 0.59215832 4278190080
-0.20949151 0.0060638636 0.59206152 4278190080
-0.20844118 0.0059057996 0.59211051 4278190080
-0.20739917 0.0057489872 0.59215915 4278190080
-0.20651163 0.0056294873 0.59230459 4278190080
-0.20588593 0.0055741407 0.59262067 4278190080
-0.20526169 0.0055188723 0.59293568 4278190080
-0.20463915 0.0054637641 0.5932498 4278190080
-0.20401846 0.0054088123 0.59356302 4278190080
-0.20341785 0.0053586066 0.59388804 4278190080
-0.20287956 0.005323749 0.59425431 4278190080
-0.20248108 0.0053238235 0.59471667 4278190080
-0.20208259 0.005323898 0.59517908 4278190080
-0.2016841 0.0053239688 0.59564143 4278190080
-0.20128562 0.0053240396 0.59610379 4278190080
-0.20091496 0.0053311847 0.59658611 4278190080
-0.20086707 0.0054204464 0.59730148 4278190080
-0.20081891 0.0055101216 0.59802008 4278190080
-0.20077024 0.005600132 0.59874171 4278190080
-0.20072167 0.0056906305 0.59946692 4278190080
-0.20067291 0.0057815462 0.60019547 4278190080
-0.20062383 0.0058728866 0.60092741 4278190080
-0.20057459 0.0059646405 0.60166276 4278190080
-0.20052479 0.0060567521 0.6024012 4278190080
-0.20047508 0.0061493665 0.60314333 4278190080
-0.20042513 0.0062424131 0.60388899 4278190080
-0.20037492 0.0063358955 0.6046381 4278190080
-0.20032449 0.0064298175 0.60539067 4278190080
-0.20027356 0.0065241009 0.60614663 4278190080
-0.20021732 0.0066175088 0.60690212 4278190080
-0.20014252 0.0067065023 0.6076467 4278190080
-0.20006736 0.0067958906 0.6083945 4278190080
-0.1999919 0.0068856776 0.60914558 4278190080
-0.19991602 0.0069758631 0.60990006 4278190080
-0.19983988 0.0070664473 0.61065781 4278190080
-0.19976337 0.0071574375 0.61141902 4278190080
-0.19968654 0.0072488338 0.61218363 4278190080
-0.19958659 0.0073345155 0.61293274 4278190080
-0.19945265 0.0074115023 0.613657 4278190080
-0.19931822 0.007488776 0.61438394 4278190080
-0.19912536 0.0075506233 0.61506462 4278190080
-0.19889586 0.0076028667 0.6157167 4278190080
-0.19854449 0.0076221339 0.61626637 4278190080
-0.19809689 0.0076151937 0.61673385 4278190080
-0.19755842 0.0075832903 0.61712211 4278190080
-0.19694652 0.0075310208 0.61744493 4278190080
-0.19626684 0.0074597448 0.61770582 4278190080
-0.19556759 0.0073826574 0.61794651 4278190080
-0.1948707 0.0073057786 0.618186 4278190080
-0.1941237 0.0072145313 0.61837733 4278190080
-0.19337858 0.0071232878 0.61856651 4278190080
-0.19263677 0.0070324503 0.6187548 4278190080
-0.19189824 0.0069420151 0.61894232 4278190080
-0.19116302 0.0068519786 0.619129 4278190080
-0.19043101 0.0067623444 0.61931485 4278190080
-0.18970223 0.0066731013 0.61949986 4278190080
-0.18897338 0.0065833218 0.619681 4278190080
-0.18822931 0.0064886808 0.6198439 4278190080
-0.18748902 0.0063945614 0.62000632 4278190080
-0.18675186 0.0063008107 0.62016767 4278190080
-0.18601812 0.0062074922 0.62032831 4278190080
-0.18528788 0.0061146095 0.62048817 4278190080
-0.18456094 0.0060221553 0.62064731 4278190080
-0.18383767 0.0059302039 0.62080592 4278190080
-0.18311746 0.0058386028 0.62096357 4278190080
-0.1824006 0.0057474263 0.62112051 4278190080
-0.18168701 0.0056566671 0.62127674 4278190080
-0.18097667 0.0055663213 0.62143219 4278190080
-0.18026961 0.0054763928 0.62158698 4278190080
-0.17956604 0.0053869449 0.62174135 4278190080
-0.17895399 0.0053240396 0.62198573 4278190080
-0.17855497 0.0053239688 0.62244767 4278190080
-0.17815594 0.005323898 0.62290961 4278190080
-0.17775692 0.0053238235 0.62337154 4278190080
-0.1773579 0.005323749 0.62383342 4278190080
-0.17698242 0.0053307489 0.62432033 4278190080
-0.1767313 0.0053752512 0.62494034 4278190080
-0.17651084 0.0054293089 0.62559539 4278190080
-0.17629245 0.0054843202 0.6262551 4278190080
-0.17607343 0.005539488 0.62691665 4278190080
-0.17585383 0.0055948123 0.62758017 4278190080
-0.17563793 0.0056516267 0.62825024 4278190080
-0.17574415 0.0058076642 0.62928051 4278190080
-0.17585117 0.005964946 0.63031888 4278190080
-0.17599861 0.0061356984 0.63141012 4278190080
-0.17633048 0.0063646734 0.63271791 4278190080
-0.17666586 0.0065962113 0.63404047 4278190080
-0.17700519 0.006830439 0.63537842 4278190080
-0.17734845 0.007067401 0.63673204 4278190080
-0.17787181 0.007362403 0.6383059 4278190080
-0.17866661 0.0077447705 0.64021087 4278190080
-0.1794758 0.0081341453 0.64215094 4278190080
-0.18030034 0.0085308999 0.64412785 4278190080
-0.22394212 0.00941623 0.59518367 4278190080
-0.22125717 0.0088660866 0.59429181 4278190080
-0.21920849 0.008469101 0.59377718 4278190080
-0.21719797 0.0080795325 0.59327221 4278190080
-0.21534105 0.0077258386 0.59285045 4278190080
-0.21394818 0.0074849352 0.59271157 4278190080
-0.21257134 0.0072468109 0.5925743 4278190080
-0.21121006 0.0070113428 0.5924384 4278190080
-0.20986466 0.0067786388 0.59230429 4278190080
-0.20867603 0.0065838657 0.59226441 4278190080
-0.20773421 0.0064497888 0.59238017 4278190080
-0.20710327 0.0063929223 0.59269756 4278190080
-0.20647441 0.0063362941 0.5930143 4278190080
-0.20584707 0.0062797479 0.59332991 4278190080
-0.20522143 0.0062233619 0.59364462 4278190080
-0.20459758 0.0061671399 0.5939585 4278190080
-0.20405586 0.006131459 0.59432667 4278190080
-0.2036557 0.0061316118 0.59479159 4278190080
-0.20325525 0.0061316825 0.59525627 4278190080
-0.20285474 0.0061317571 0.59572095 4278190080
-0.20245428 0.0061318353 0.59618556 4278190080
-0.20226781 0.0061869137 0.59680253 4278190080
-0.20222272 0.0062786974 0.59752274 4278190080
-0.20217739 0.0063709021 0.59824634 4278190080
-0.20213185 0.0064635351 0.59897321 4278190080
-0.20208614 0.0065566003 0.59970349 4278190080
-0.20203988 0.0066500157 0.60043693 4278190080
-0.20199372 0.0067439452 0.601174 4278190080
-0.20194735 0.0068383105 0.60191453 4278190080
-0.20190077 0.0069331154 0.60265845 4278190080
-0.20185392 0.0070283674 0.60340589 4278190080
-0.20180662 0.0071239881 0.60415661 4278190080
-0.20175932 0.0072201379 0.60491115 4278190080
-0.20171188 0.0073167346 0.60566914 4278190080
-0.20166416 0.0074137934 0.60643077 4278190080
-0.20161621 0.007511314 0.60719603 4278190080
-0.20156778 0.0076092146 0.60796463 4278190080
-0.20151941 0.0077076592 0.60873717 4278190080
-0.20147075 0.0078065805 0.6095134 4278190080
-0.2014219 0.0079059713 0.61029333 4278190080
-0.20137282 0.0080058351 0.61107695 4278190080
-0.20132323 0.008106105 0.61186421 4278190080
-0.20127364 0.0082069337 0.6126554 4278190080
-0.20122384 0.0083082505 0.61345047 4278190080
-0.20117383 0.0084100589 0.61424935 4278190080
-0.20112349 0.0085123591 0.6150521 4278190080
-0.20106624 0.008613307 0.61585319 4278190080
-0.20099087 0.0087098219 0.61664289 4278190080
-0.20090376 0.0088036247 0.61742657 4278190080
-0.20072128 0.0088715479 0.61813235 4278190080
-0.20022295 0.0088520981 0.6185683 4278190080
-0.19950156 0.0087703876 0.61880976 4278190080
-0.19872786 0.0086735971 0.6190021 4278190080
-0.19795491 0.00857649 0.61919117 4278190080
-0.19716467 0.0084739625 0.61936092 4278190080
-0.19637795 0.0083718412 0.6195296 4278190080
-0.19559501 0.008270219 0.61969745 4278190080
-0.1948158 0.0081690848 0.61986446 4278190080
-0.19404037 0.0080684386 0.6200307 4278190080
-0.19326894 0.0079683512 0.62019646 4278190080
-0.19250096 0.0078686625 0.62036109 4278190080
-0.19173656 0.0077694505 0.62052494 4278190080
-0.19097583 0.007670708 0.62068802 4278190080
-0.1902187 0.0075724386 0.62085038 4278190080
-0.18946545 0.007474713 0.62101215 4278190080
-0.1887155 0.0073773675 0.62117296 4278190080
-0.18796904 0.0072804801 0.621333 4278190080
-0.1872261 0.0071840473 0.62149227 4278190080
-0.18648665 0.0070880689 0.62165076 4278190080
-0.18575065 0.0069925375 0.62180853 4278190080
-0.18501841 0.0068975314 0.62196589 4278190080
-0.18428923 0.0068028904 0.62212217 4278190080
-0.18356346 0.006708689 0.62227774 4278190080
-0.18284108 0.0066149235 0.62243259 4278190080
-0.18212204 0.0065215901 0.62258673 4278190080
-0.18140654 0.006428767 0.62274045 4278190080
-0.18069415 0.0063362941 0.62289321 4278190080
-0.17998494 0.0062442459 0.62304521 4278190080
-0.17927901 0.0061526187 0.62319654 4278190080
-0.1788093 0.0061318353 0.62358969 4278190080
-0.17840804 0.0061316825 0.62405366 4278190080
-0.17800702 0.0061316118 0.62451786 4278190080
-0.17760606 0.0061315335 0.62498212 4278190080
-0.17720674 0.0061319843 0.62544811 4278190080
-0.17698883 0.0061881095 0.62610912 4278190080
-0.17677028 0.0062443949 0.62677205 4278190080
-0.17655118 0.0063008443 0.62743682 4278190080
-0.17633142 0.0063574426 0.62810344 4278190080
-0.17611101 0.0064142123 0.62877196 4278190080
-0.17593096 0.0064839125 0.62948781 4278190080
-0.17603892 0.0066441111 0.63052863 4278190080
-0.17633915 0.0068656541 0.6317929 4278190080
-0.17667358 0.0070993528 0.63310611 4278190080
-0.17701189 0.0073357634 0.63443446 4278190080
-0.17735411 0.0075749271 0.63577831 4278190080
-0.17777188 0.0078396313 0.63722044 4278190080
-0.17856266 0.0082248896 0.63910782 4278190080
-0.17936783 0.0086172707 0.64103007 4278190080
-0.18018802 0.009016972 0.64298832 4278190080
-0.18199624 0.0097372755 0.64613461 4278190080
-0.22640987 0.010691077 0.59670168 4278190080
-0.22246455 0.0098212175 0.59503978 4278190080
-0.22012718 0.0093470477 0.59435034 4278190080
-0.21809717 0.0089471899 0.5938372 4278190080
-0.21610482 0.0085547715 0.59333372 4278190080
-0.21439637 0.0082315467 0.59299719 4278190080
-0.21301331 0.0079884641 0.59285784 4278190080
-0.21164615 0.0077481791 0.59272015 4278190080
-0.21029438 0.0075105727 0.59258389 4278190080
-0.20898844 0.0072833784 0.5924691 4278190080
-0.20833348 0.0072202086 0.59277552 4278190080
-0.20769931 0.007162042 0.59309351 4278190080
-0.20706697 0.0071040317 0.59341061 4278190080
-0.20643674 0.0070462674 0.59372705 4278190080
-0.20580797 0.0069885887 0.59404242 4278190080
-0.2052439 0.006947238 0.59439981 4278190080
-0.20484172 0.0069473907 0.59486699 4278190080
-0.20443927 0.006947469 0.59533399 4278190080
-0.20403679 0.0069475435 0.595801 4278190080
-0.20363463 0.0069477037 0.59626818 4278190080
-0.20352833 0.007024873 0.59694451 4278190080
-0.203485 0.0071188658 0.59766841 4278190080
-0.20344146 0.007213302 0.59839565 4278190080
-0.20339774 0.0073081702 0.59912634 4278190080
-0.20335381 0.0074034743 0.59986031 4278190080
-0.20330934 0.0074991547 0.60059756 4278190080
-0.20326503 0.0075953528 0.60133845 4278190080
-0.20322044 0.0076920018 0.60208279 4278190080
-0.20317571 0.0077891015 0.60283065 4278190080
-0.20313038 0.0078865774 0.60358173 4278190080
-0.2030852 0.0079845972 0.60433662 4278190080
-0.20303978 0.008083079 0.60509509 4278190080
