# .PCD v0.7 - Point Cloud Data file format
VERSION 0.7
FIELDS x y z rgba
SIZE 4 4 4 4
TYPE F F F U
COUNT 1 1 1 1
WIDTH 1105
HEIGHT 1
VIEWPOINT 0 0 0 1 0 0 0
POINTS 1105
DATA ascii
-0.086451225 0.093831286 0.45199999 4292358236
-0.085606284 0.093831286 0.45199999 4292227420
-0.084761344 0.093831286 0.45199999 4292227934
-0.083916411 0.093831286 0.45199999 4292425313
-0.10746019 0.093838237 0.44800001 4291905652
-0.10662273 0.093838237 0.44800001 4291509611
nan nan nan 0
nan nan nan 0
nan nan nan 0
nan nan nan 0
nan nan nan 0
nan nan nan 0
nan nan nan 0
nan nan nan 0
nan nan nan 0
nan nan nan 0
nan nan nan 0
-0.09851326 0.095723376 0.45699999 4291832928
-0.097658977 0.095723376 0.45699999 4291703650
-0.096804686 0.095723376 0.45699999 4292496502
-0.09616036 0.095932841 0.458 4294536854
-0.094679952 0.095304459 0.45500001 4292031587
-0.093623184 0.095094994 0.454 4291898715
-0.092570156 0.094885543 0.45300001 4292160858
-0.091520868 0.094676077 0.45199999 4291963735
-0.090876542 0.094885543 0.45300001 4292095319
-0.090029731 0.094885543 0.45300001 4291963734
-0.089182921 0.094885543 0.45300001 4292095321
-0.088531114 0.095094994 0.454 4292227164
-0.087103039 0.094466619 0.45100001 4292292443
-0.086068697 0.094257154 0.44999999 4292424543
-0.085227497 0.094257154 0.44999999 4292227163
-0.084573828 0.094466619 0.45100001 4292096091
-0.083916411 0.094676077 0.45199999 4292359777
-0.10722031 0.094464213 0.447 4292690034
-0.10638472 0.094464213 0.447 4292555881
nan nan nan 0
nan nan nan 0
nan nan nan 0
nan nan nan 0
nan nan nan 0
nan nan nan 0
nan nan nan 0
nan nan nan 0
nan nan nan 0
nan nan nan 0
-0.098497815 0.09573219 0.45300001 4292489572
-0.09851326 0.096577503 0.45699999 4292094814
-0.097658977 0.096577503 0.45699999 4291965281
-0.096381038 0.096154854 0.45500001 4292428913
-0.094900616 0.095520861 0.45199999 4294864794
-0.094263777 0.09573219 0.45300001 4292426346
-0.093210742 0.095520861 0.45199999 4292095069
-0.092570156 0.09573219 0.45300001 4292159833
-0.091520868 0.095520861 0.45199999 4292094808
-0.090876542 0.09573219 0.45300001 4292292186
-0.090029731 0.09573219 0.45300001 4292094550
-0.089182921 0.09573219 0.45300001 4291897428
-0.088141106 0.095520861 0.45199999 4292161114
-0.087103039 0.095309533 0.45100001 4292292700
-0.085877441 0.094886877 0.449 4292424286
-0.085038103 0.094886877 0.449 4292359006
-0.084386297 0.095098197 0.44999999 4292096348
-0.083916411 0.095520861 0.45199999 4292360033
-0.10698045 0.095086455 0.44600001 4292820335
-0.10638472 0.095299654 0.447 4292752232
-0.10554913 0.095299654 0.447 4292816741
-0.10471354 0.095299654 0.447 4292356703
-0.10387795 0.095299654 0.447 4292355933
-0.10304236 0.095299654 0.447 4292487006
-0.10220677 0.095299654 0.447 4292619362
-0.10159796 0.09551286 0.44800001 4292421982
-0.1007605 0.09551286 0.44800001 4292159323
-0.09992303 0.09551286 0.44800001 4292093529
-0.09930674 0.09572605 0.449 4292159322
-0.09846741 0.09572605 0.449 4292357214
-0.09784551 0.095939249 0.44999999 4292818279
-0.097651005 0.096578844 0.45300001 4292225374
-0.096804194 0.096578844 0.45300001 4291832155
-0.095533736 0.096152447 0.45100001 4292163945
-0.094900616 0.096365646 0.45199999 4294206607
-0.094055682 0.096365646 0.45199999 4293020023
-0.093210742 0.096365646 0.45199999 4291964253
-0.092161462 0.096152447 0.45100001 4292160089
-0.091115907 0.095939249 0.44999999 4292028502
-0.090475321 0.096152447 0.45100001 4292094294
-0.089830987 0.096365646 0.45199999 4292094551
-0.088986047 0.096365646 0.45199999 4291831636
-0.088141106 0.096365646 0.45199999 4292161114
-0.086716771 0.09572605 0.449 4292161371
-0.085877441 0.09572605 0.449 4292425056
-0.085038103 0.09572605 0.449 4292556899
-0.084198773 0.09572605 0.449 4292162654
-0.083730757 0.096152447 0.45100001 4292294240
-0.10698045 0.095920026 0.44600001 4292490857
-0.10638472 0.096135095 0.447 4292751206
-0.10507687 0.095704958 0.44499999 4292553569
-0.10424502 0.095704958 0.44499999 4292619361
-0.10364556 0.095920026 0.44600001 4292618078
-0.10281184 0.095920026 0.44600001 4292354906
-0.10220677 0.096135095 0.447 4292618335
-0.10137117 0.096135095 0.447 4292487006
-0.1007605 0.096350163 0.44800001 4292158295
-0.09992303 0.096350163 0.44800001 4292093272
-0.099085569 0.096350163 0.44800001 4292291162
-0.098248109 0.096350163 0.44800001 4292489054
-0.097410642 0.096350163 0.44800001 4292818792
-0.096788742 0.096565232 0.449 4292291680
-0.096163101 0.096780293 0.44999999 4291831642
-0.095321901 0.096780293 0.44999999 4291834209
-0.094690666 0.096995369 0.45100001 4293286018
-0.093847603 0.096995369 0.45100001 4293745286
-0.093004532 0.096995369 0.45100001 4291898717
-0.09175276 0.096565232 0.449 4292094812
-0.091115907 0.096780293 0.44999999 4292028504
-0.090274706 0.096780293 0.44999999 4291897429
-0.08963225 0.096995369 0.45100001 4291832149
-0.08878918 0.096995369 0.45100001 4291832149
-0.087946109 0.096995369 0.45100001 4291964505
-0.086909898 0.096780293 0.44999999 4291898969
-0.085877441 0.096565232 0.449 4292228190
-0.085227497 0.096780293 0.44999999 4292294240
-0.084386297 0.096780293 0.44999999 4292228448
-0.083730757 0.096995369 0.45100001 4292294242
-0.10698045 0.096753605 0.44600001 4292031334
-0.10590873 0.096536666 0.44499999 4292554853
-0.10507687 0.096536666 0.44499999 4292422239
-0.10424502 0.096536666 0.44499999 4292422496
-0.10364556 0.096753605 0.44600001 4292618592
-0.10281184 0.096753605 0.44600001 4292290140
-0.10197812 0.096753605 0.44600001 4292159067
-0.10137117 0.096970543 0.447 4292224090
-0.1007605 0.097187482 0.44800001 4292158810
-0.099699982 0.096970543 0.447 4292356702
-0.098864391 0.096970543 0.447 4292160349
-0.098028801 0.096970543 0.447 4291701080
-0.097410642 0.097187482 0.44800001 4292162658
-0.096573181 0.097187482 0.44800001 4292030818
-0.095949411 0.097404413 0.449 4291767389
-0.095321901 0.097621351 0.44999999 4291833953
-0.094690666 0.09783829 0.45100001 4292758904
-0.093431421 0.097404413 0.449 4294141328
-0.09259209 0.097404413 0.449 4292096868
-0.091548413 0.097187482 0.44800001 4292029789
-0.09091343 0.097404413 0.449 4291963737
-0.0900741 0.097404413 0.449 4291635285
-0.089234762 0.097404413 0.449 4291766869
-0.088395432 0.097404413 0.449 4291964248
-0.087751098 0.097621351 0.44999999 4291767383
-0.086909898 0.097621351 0.44999999 4291702103
-0.086068697 0.097621351 0.44999999 4292096862
-0.085227497 0.097621351 0.44999999 4292162656
-0.084386297 0.097621351 0.44999999 4292162914
-0.083730757 0.09783829 0.45100001 4292031587
-0.10722031 0.097805984 0.447 4291182187
-0.10638472 0.097805984 0.447 4291704679
-0.105313 0.097587176 0.44600001 4291373917
-0.10447929 0.097587176 0.44600001 4291702367
-0.10387795 0.097805984 0.447 4291636061
-0.10304236 0.097805984 0.447 4291635547
-0.10243542 0.098024793 0.44800001 4291570268
-0.10182473 0.098243594 0.449 4291310945
-0.1009854 0.098243594 0.449 4291313255
-0.09992303 0.098024793 0.44800001 4290985317
-0.099085569 0.098024793 0.44800001 4290592355
-0.098248109 0.098024793 0.44800001 4291319158
-0.097410642 0.098024793 0.44800001 4292373386
-0.096788742 0.098243594 0.449 4294082978
-0.096163101 0.098462395 0.44999999 4293485965
-0.095321901 0.098462395 0.44999999 4291375968
-0.094480701 0.098462395 0.44999999 4292100204
-0.093431421 0.098243594 0.449 4294601365
-0.09259209 0.098243594 0.449 4292097125
-0.091548413 0.098024793 0.44800001 4291899230
-0.09091343 0.098243594 0.449 4292227681
-0.0900741 0.098243594 0.449 4292622694
-0.089234762 0.098243594 0.449 4292425570
-0.088395432 0.098243594 0.449 4292030298
-0.087751098 0.098462395 0.44999999 4291833434
-0.086909898 0.098462395 0.44999999 4291965792
-0.086068697 0.098462395 0.44999999 4292163684
-0.085227497 0.098462395 0.44999999 4291966819
-0.084386297 0.098462395 0.44999999 4291048543
-0.083730757 0.098681204 0.45100001 4290855527
-0.10746019 0.098862097 0.44800001 4294951389
-0.10638472 0.098641418 0.447 4294945995
-0.10554913 0.098641418 0.447 4292836765
-0.10471354 0.098641418 0.447 4293164189
-0.10387795 0.098641418 0.447 4294679740
-0.10327288 0.098862097 0.44800001 4294282157
-0.10243542 0.098862097 0.44800001 4292307340
-0.10182473 0.099082768 0.449 4294089653
-0.1009854 0.099082768 0.449 4294947786
-0.09992303 0.098862097 0.44800001 4294948557
-0.099085569 0.098862097 0.44800001 4293236909
-0.098248109 0.098862097 0.44800001 4294687435
-0.097410642 0.098862097 0.44800001 4294886869
-0.096573181 0.098862097 0.44800001 4294754258
-0.095949411 0.099082768 0.449 4294615743
-0.094898254 0.098862097 0.44800001 4291114079
-0.094060794 0.098862097 0.44800001 4291442274
-0.093015246 0.098641418 0.447 4294667672
-0.092179656 0.098641418 0.447 4292361580
-0.091548413 0.098862097 0.44800001 4291636059
-0.09091343 0.099082768 0.449 4292425574
-0.0900741 0.099082768 0.449 4292426600
-0.089234762 0.099082768 0.449 4291966562
-0.088395432 0.099082768 0.449 4291901282
-0.087751098 0.099303439 0.44999999 4292296812
-0.086909898 0.099303439 0.44999999 4292231789
-0.086259969 0.099524118 0.45100001 4291247462
-0.085416898 0.099524118 0.45100001 4291381872
-0.084573828 0.099524118 0.45100001 4293163159
-0.083730757 0.099524118 0.45100001 4294615481
-0.10722031 0.099476866 0.447 4294958832
-0.10614673 0.099254325 0.44600001 4294957807
-0.105313 0.099254325 0.44600001 4294093508
-0.10447929 0.099254325 0.44600001 4293632185
-0.10387795 0.099476866 0.447 4294953186
-0.10304236 0.099476866 0.447 4294619338
-0.10220677 0.099476866 0.447 4292579755
-0.10137117 0.099476866 0.447 4294951897
-0.1007605 0.099699415 0.44800001 4294426578
-0.099699982 0.099476866 0.447 4294491599
-0.098864391 0.099476866 0.447 4293768131
-0.098028801 0.099476866 0.447 4294031816
-0.097193204 0.099476866 0.447 4294558929
-0.096357614 0.099476866 0.447 4294688718
-0.095522016 0.099476866 0.447 4294949072
-0.094474606 0.099254325 0.44600001 4291509351
-0.093430921 0.099031776 0.44499999 4291047773
-0.092599072 0.099031776 0.44499999 4294537369
-0.091973439 0.099254325 0.44600001 4293285249
-0.091139711 0.099254325 0.44600001 4291637600
-0.090710953 0.099699415 0.44800001 4291833953
-0.0900741 0.099921957 0.449 4291966051
-0.089036025 0.099699415 0.44800001 4292099433
-0.088395432 0.099921957 0.449 4292035950
-0.087751098 0.1001445 0.44999999 4291644017
-0.086909898 0.1001445 0.44999999 4291713659
-0.086259969 0.10036704 0.45100001 4293688733
-0.085606284 0.10058958 0.45199999 4294150567
-0.084761344 0.10058958 0.45199999 4292636301
-0.083730757 0.10036704 0.45100001 4290595179
-0.10722031 0.10031231 0.447 4294956264
-0.10638472 0.10031231 0.447 4294956524
-0.10554913 0.10031231 0.447 4294026434
-0.10471354 0.10031231 0.447 4292511909
-0.10411035 0.10053673 0.44800001 4294952672
-0.10327288 0.10053673 0.44800001 4294094022
-0.10243542 0.10053673 0.44800001 4292318381
-0.10159796 0.10053673 0.44800001 4294819799
-0.1007605 0.10053673 0.44800001 4294360785
-0.09992303 0.10053673 0.44800001 4294229199
-0.099085569 0.10053673 0.44800001 4293703110
-0.098248109 0.10053673 0.44800001 4293965767
-0.097410642 0.10053673 0.44800001 4294425547
-0.096573181 0.10053673 0.44800001 4294752972
-0.095522016 0.10031231 0.447 4294947018
-0.094474606 0.1000879 0.44600001 4292957310
-0.093430921 0.099863485 0.44499999 4291113566
-0.092599072 0.099863485 0.44499999 4293878412
-0.092179656 0.10031231 0.447 4293812619
-0.091344059 0.10031231 0.447 4292757877
-0.090710953 0.10053673 0.44800001 4291901029
-0.0900741 0.10076113 0.449 4291441504
-0.089036025 0.10053673 0.44800001 4290984803
-0.088395432 0.10076113 0.449 4291515767
-0.087751098 0.10098554 0.44999999 4293624480
-0.087103039 0.10120996 0.45100001 4294349486
-0.086259969 0.10120996 0.45100001 4292173954
-0.085985079 0.1018832 0.454 4290263133
-0.084948875 0.10165878 0.45300001 4290127698
-0.084102064 0.10165878 0.45300001 4290456149
-0.10722031 0.10114775 0.447 4294956011
-0.10614673 0.10092147 0.44600001 4294955502
-0.105313 0.10092147 0.44600001 4293168559
-0.10447929 0.10092147 0.44600001 4294486215
-0.10387795 0.10114775 0.447 4294880459
-0.10304236 0.10114775 0.447 4294553803
-0.10197812 0.10092147 0.44600001 4294487494
-0.10137117 0.10114775 0.447 4294489035
-0.10053558 0.10114775 0.447 4294820311
-0.09992303 0.10137403 0.44800001 4294818771
-0.099085569 0.10137403 0.44800001 4294748868
-0.098028801 0.10114775 0.447 4294416824
-0.097193204 0.10114775 0.447 4292833169
-0.096357614 0.10114775 0.447 4294278304
-0.095308326 0.10092147 0.44600001 4293419401
-0.094262771 0.10069519 0.44499999 4292822644
-0.093430921 0.10069519 0.44499999 4291309661
-0.092599072 0.10069519 0.44499999 4292363633
-0.092179656 0.10114775 0.447 4292495475
-0.091344059 0.10114775 0.447 4291770983
-0.09091343 0.10160031 0.449 4290655069
-0.0900741 0.10160031 0.449 4290528359
-0.089234762 0.10160031 0.449 4293032856
-0.088592298 0.10182659 0.44999999 4294220210
-0.087946109 0.10205287 0.45100001 4292243853
-0.087103039 0.10205287 0.45100001 4290592099
-0.086451225 0.10227915 0.45199999 4289994828
-0.085985079 0.10273172 0.454 4290585169
-0.08532393 0.102958 0.45500001 4290717012
-0.084287718 0.10273172 0.454 4289865809
-0.10698045 0.10175505 0.44600001 4294010779
-0.10590873 0.10152689 0.44499999 4293680784
-0.10484075 0.10129874 0.44400001 4292627583
-0.10401077 0.10129874 0.44400001 4293680782
-0.10341317 0.10152689 0.44499999 4291707762
-0.10258131 0.10152689 0.44499999 4294142103
-0.10174946 0.10152689 0.44499999 4293156233
-0.10091761 0.10152689 0.44499999 4293089413
-0.10031067 0.10175505 0.44600001 4293548681
-0.099699982 0.1019832 0.447 4292562556
-0.098864391 0.1019832 0.447 4291903854
-0.098028801 0.1019832 0.447 4291704934
-0.097193204 0.1019832 0.447 4291704164
-0.096357614 0.1019832 0.447 4292426346
-0.095308326 0.10175505 0.44600001 4291768416
-0.094262771 0.10152689 0.44499999 4291767390
-0.093430921 0.10152689 0.44499999 4291373403
-0.092599072 0.10152689 0.44499999 4291573092
-0.092179656 0.1019832 0.447 4290852448
-0.091548413 0.10221135 0.44800001 4290200422
-0.09091343 0.10243949 0.449 4292574359
-0.090274706 0.10266764 0.44999999 4294944703
-0.089433506 0.10266764 0.44999999 4293691299
-0.088986047 0.10312394 0.45199999 4290396516
-0.08833611 0.1033521 0.45300001 4289733194
-0.087296166 0.10312394 0.45199999 4290649934
-0.086642496 0.1033521 0.45300001 4291174739
-0.085985079 0.10358024 0.454 4290715471
-0.08532393 0.1038084 0.45500001 4290259283
-0.084473379 0.1038084 0.45500001 4291849352
-0.10698045 0.10258862 0.44600001 4292689011
-0.10590873 0.10235859 0.44499999 4292555885
-0.10507687 0.10235859 0.44499999 4292818286
-0.10424502 0.10235859 0.44499999 4292357734
-0.10341317 0.10235859 0.44499999 4292357990
-0.10258131 0.10235859 0.44499999 4292556137
-0.10174946 0.10235859 0.44499999 4292424807
-0.1011444 0.10258862 0.44600001 4292422498
-0.10053558 0.10281863 0.447 4292160351
-0.09992303 0.10304866 0.44800001 4292094558
-0.099085569 0.10304866 0.44800001 4291962715
-0.098248109 0.10304866 0.44800001 4292094558
-0.097410642 0.10304866 0.44800001 4291897692
-0.096573181 0.10304866 0.44800001 4291898462
-0.095522016 0.10281863 0.447 4291570267
-0.094474606 0.10258862 0.44600001 4291503704
-0.093640879 0.10258862 0.44600001 4290980185
-0.092807159 0.10258862 0.44600001 4290197085
-0.092179656 0.10281863 0.447 4291915916
-0.091548413 0.10304866 0.44800001 4294684358
-0.091115907 0.10350869 0.44999999 4294683073
-0.090475321 0.10373871 0.45100001 4291582330
-0.089830987 0.10396873 0.45199999 4289668172
-0.088986047 0.10396873 0.45199999 4290714956
-0.08833611 0.10419875 0.45300001 4290977099
-0.087489299 0.10419875 0.45300001 4290976073
-0.086642496 0.10419875 0.45300001 4290976588
-0.085795686 0.10419875 0.45300001 4290584142
-0.085136399 0.10442877 0.454 4289080143
-0.084287718 0.10442877 0.454 4292976817
-0.10722031 0.10365407 0.447 4292883564
-0.10614673 0.10342219 0.44600001 4292752235
-0.10507687 0.1031903 0.44499999 4292424038
-0.10424502 0.1031903 0.44499999 4292554854
-0.10318079 0.10295841 0.44400001 4292620133
-0.10258131 0.1031903 0.44499999 4292423266
-0.10197812 0.10342219 0.44600001 4292291424
-0.1011444 0.10342219 0.44600001 4292356447
-0.1007605 0.10388596 0.44800001 4292355677
-0.10014607 0.10411785 0.449 4292224603
-0.09930674 0.10411785 0.449 4291896152
-0.09846741 0.10411785 0.449 4292028251
-0.097410642 0.10388596 0.44800001 4291962716
-0.096573181 0.10388596 0.44800001 4291701341
-0.095735721 0.10388596 0.44800001 4290784089
-0.094686426 0.10365407 0.447 4290262108
-0.093850836 0.10365407 0.447 4290994558
-0.093015246 0.10365407 0.447 4294420671
-0.092385873 0.10388596 0.44800001 4294883533
-0.091957107 0.10434974 0.44999999 4292639639
-0.091318391 0.10458163 0.45100001 4289933655
-0.090675928 0.10481352 0.45199999 4290455121
-0.090029731 0.10504541 0.45300001 4290912846
-0.089182921 0.10504541 0.45300001 4291042121
-0.08833611 0.10504541 0.45300001 4290976328
-0.087682433 0.10527729 0.454 4290911049
-0.086642496 0.10504541 0.45300001 4290518604
-0.085985079 0.10527729 0.454 4289339721
-0.08532393 0.10550918 0.45500001 4289418605
-0.084659033 0.10574107 0.456 4293112767
-0.10746019 0.10472328 0.44800001 4292883307
-0.10614673 0.10425577 0.44600001 4292817001
-0.10507687 0.104022 0.44499999 4292751721
-0.10424502 0.104022 0.44499999 4292290655
-0.10341317 0.104022 0.44499999 4292421726
-0.10281184 0.10425577 0.44600001 4292290910
-0.10220677 0.10448952 0.447 4292225374
-0.10137117 0.10448952 0.447 4292158041
-0.1009854 0.10495704 0.449 4292486492
-0.10036911 0.10519079 0.44999999 4292092248
-0.09952791 0.10519079 0.44999999 4291699797
-0.09868671 0.10519079 0.44999999 4291896922
-0.097628072 0.10495704 0.449 4291504732
-0.096788742 0.10495704 0.449 4290194262
-0.095735721 0.10472328 0.44800001 4290401650
-0.094898254 0.10472328 0.44800001 4294355648
-0.094060794 0.10472328 0.44800001 4294952923
-0.093015246 0.10448952 0.447 4293826994
-0.09259209 0.10495704 0.449 4289804893
-0.091957107 0.10519079 0.44999999 4289866066
-0.091115907 0.10519079 0.44999999 4290651732
-0.090675928 0.10565831 0.45199999 4290650446
-0.090029731 0.10589207 0.45300001 4290912589
-0.089182921 0.10589207 0.45300001 4290648904
-0.088531114 0.10612582 0.454 4290846283
-0.087682433 0.10612582 0.454 4290782288
-0.086833753 0.10612582 0.454 4289538896
-0.086174473 0.10635958 0.45500001 4291063943
-0.08532393 0.10635958 0.45500001 4293966536
-0.084659033 0.10659333 0.456 4293707726
-0.10746019 0.10556059 0.44800001 4292686187
-0.10638472 0.10532496 0.447 4292751208
-0.105313 0.10508934 0.44600001 4292882794
-0.10447929 0.10508934 0.44600001 4292816999
-0.10387795 0.10532496 0.447 4292750691
-0.10304236 0.10532496 0.447 4292355933
-0.10243542 0.10556059 0.44800001 4292159324
-0.10182473 0.10579621 0.449 4292158811
-0.10143523 0.10626747 0.45100001 4292093531
-0.10059216 0.10626747 0.45100001 4291896151
-0.10019144 0.10673872 0.45300001 4291371861
-0.099125318 0.10650309 0.45199999 4290520402
-0.098280378 0.10650309 0.45199999 4289869917
-0.097004309 0.10603184 0.44999999 4292972968
-0.095949411 0.10579621 0.449 4294822875
-0.095110081 0.10579621 0.449 4294951895
-0.094060794 0.10556059 0.44800001 4291978371
-0.093431421 0.10579621 0.449 4289801042
-0.092798308 0.10603184 0.44999999 4290389073
-0.091957107 0.10603184 0.44999999 4290848084
-0.091520868 0.10650309 0.45199999 4290848341
-0.090876542 0.10673872 0.45300001 4289733452
-0.090029731 0.10673872 0.45300001 4290527843
-0.089379787 0.10697434 0.454 4289210700
-0.088531114 0.10697434 0.454 4288880965
-0.087875567 0.10720997 0.45500001 4289610591
-0.087025024 0.10720997 0.45500001 4293103526
-0.086174473 0.10720997 0.45500001 4294820561
-0.085511446 0.1074456 0.456 4292520886
-0.084659033 0.1074456 0.456 4292918725
-0.10746019 0.1063979 0.44800001 4292494198
-0.10638472 0.1061604 0.447 4292291429
-0.105313 0.10592291 0.44600001 4292685415
-0.10471354 0.1061604 0.447 4292620133
-0.10387795 0.1061604 0.447 4292487520
-0.10327288 0.1063979 0.44800001 4292487520
-0.10266407 0.10663539 0.449 4292159069
-0.10205151 0.10687289 0.44999999 4292159069
-0.10121031 0.10687289 0.44999999 4292093789
-0.1008152 0.10734788 0.45199999 4291111257
-0.10019144 0.10758538 0.45300001 4289605461
-0.099344626 0.10758538 0.45300001 4290802569
-0.098280378 0.10734788 0.45199999 4294755542
-0.097435437 0.10734788 0.45199999 4294956519
-0.096163101 0.10687289 0.44999999 4294289086
-0.095110081 0.10663539 0.449 4289802326
-0.094270751 0.10663539 0.449 4290060108
-0.093639508 0.10687289 0.44999999 4290847571
-0.093004532 0.10711038 0.45100001 4290715728
-0.092365809 0.10734788 0.45199999 4290520659
-0.091520868 0.10734788 0.45199999 4290528359
-0.090876542 0.10758538 0.45300001 4293301418
-0.090228468 0.10782287 0.454 4294360780
-0.089576669 0.10806037 0.45500001 4292121764
-0.088726118 0.10806037 0.45500001 4291001486
-0.087875567 0.10806037 0.45500001 4294424263
-0.087025024 0.10806037 0.45500001 4294031044
-0.086363867 0.10829785 0.456 4290017672
-0.08569897 0.10853535 0.45699999 4288309621
-0.084844686 0.10853535 0.45699999 4292853704
-0.10722031 0.10699584 0.447 4294864544
-0.10614673 0.10675648 0.44600001 4292159841
-0.105313 0.10675648 0.44600001 4292488034
-0.10471354 0.10699584 0.447 4292684899
-0.10411035 0.10723521 0.44800001 4292290655
-0.10327288 0.10723521 0.44800001 4291829590
-0.10266407 0.10747457 0.449 4291633238
-0.10182473 0.10747457 0.449 4291962203
-0.10143523 0.1079533 0.45100001 4291178335
-0.10059216 0.1079533 0.45100001 4289872743
-0.099970259 0.10819266 0.45199999 4292977076
-0.099125318 0.10819266 0.45199999 4294957544
-0.098280378 0.10819266 0.45199999 4294956003
-0.097435437 0.10819266 0.45199999 4291915404
-0.096376806 0.1079533 0.45100001 4289472591
-0.095321901 0.10771393 0.44999999 4290781778
-0.094900616 0.10819266 0.45199999 4291108431
-0.094055682 0.10819266 0.45199999 4291107919
-0.093416966 0.10843202 0.45300001 4290911825
-0.092774503 0.10867139 0.454 4289997139
-0.09192583 0.10867139 0.454 4291655054
-0.090876542 0.10843202 0.45300001 4294298068
-0.090228468 0.10867139 0.454 4293511117
-0.089576669 0.10891075 0.45500001 4293313225
-0.088726118 0.10891075 0.45500001 4293706700
-0.087875567 0.10891075 0.45500001 4291269279
-0.087025024 0.10891075 0.45500001 4287977576
-0.086363867 0.10915012 0.456 4289428102
-0.085511446 0.10915012 0.456 4292984261
-0.084844686 0.10938948 0.45699999 4293380817
-0.10722031 0.10783128 0.447 4292489321
-0.10614673 0.10759006 0.44600001 4292093023
-0.105313 0.10759006 0.44600001 4292487009
-0.10471354 0.10783128 0.447 4292684899
-0.10411035 0.10807253 0.44800001 4292421473
-0.10327288 0.10807253 0.44800001 4291764313
-0.10266407 0.10831375 0.449 4291700060
-0.10182473 0.10831375 0.449 4289997398
-0.10143523 0.10879622 0.45100001 4290538886
-0.10059216 0.10879622 0.45100001 4294361297
-0.099970259 0.10903745 0.45199999 4294958057
-0.099125318 0.10903745 0.45199999 4294821849
-0.098497815 0.10927869 0.45300001 4290662513
-0.097651005 0.10927869 0.45300001 4289536331
-0.096590497 0.10903745 0.45199999 4290979927
-0.095957391 0.10927869 0.45300001 4291109716
-0.09511058 0.10927869 0.45300001 4290912080
-0.094471864 0.10951992 0.454 4290846287
-0.093829408 0.10976116 0.45500001 4290191695
-0.092774503 0.10951992 0.454 4288490318
-0.09192583 0.10951992 0.454 4289753477
-0.091077149 0.10951992 0.454 4293377994
-0.090228468 0.10951992 0.454 4293248718
-0.089379787 0.10951992 0.454 4293248718
-0.088726118 0.10976116 0.45500001 4292327359
-0.087682433 0.10951992 0.454 4287655284
-0.086833753 0.10951992 0.454 4291469995
-0.086174473 0.10976116 0.45500001 4294102229
-0.08532393 0.10976116 0.45500001 4293840596
-0.084659033 0.11000238 0.456 4293643987
-0.10770005 0.10915293 0.449 4291502426
-0.10662273 0.10890983 0.44800001 4292421475
-0.10578526 0.10890983 0.44800001 4291895899
-0.10494781 0.10890983 0.44800001 4292224864
-0.10411035 0.10890983 0.44800001 4291831646
-0.10327288 0.10890983 0.44800001 4291307101
-0.10243542 0.10890983 0.44800001 4289604952
-0.10182473 0.10915293 0.449 4291791008
-0.10121031 0.10939603 0.44999999 4294957029
-0.1008152 0.10988224 0.45199999 4294958827
-0.099970259 0.10988224 0.45199999 4294423752
-0.099125318 0.10988224 0.45199999 4288951124
-0.098497815 0.11012534 0.45300001 4289274442
-0.097651005 0.11012534 0.45300001 4289601611
-0.096804194 0.11012534 0.45300001 4290060878
-0.096169211 0.11036845 0.454 4290522969
-0.095530495 0.11061155 0.45500001 4290192977
-0.094679952 0.11061155 0.45500001 4289144396
-0.093829408 0.11061155 0.45500001 4290799489
-0.093183205 0.11085465 0.456 4293961918
-0.092330784 0.11085465 0.456 4294624727
-0.091277763 0.11061155 0.45500001 4293178821
-0.090427212 0.11061155 0.45500001 4293247180
-0.089576669 0.11061155 0.45500001 4293314513
-0.088726118 0.11061155 0.45500001 4292985547
-0.087875567 0.11061155 0.45500001 4292656838
-0.087025024 0.11061155 0.45500001 4293775318
-0.086174473 0.11061155 0.45500001 4292720062
-0.085511446 0.11085465 0.456 4290480534
-0.084659033 0.11085465 0.456 4290479250
-0.10841965 0.11072702 0.45199999 4292027998
-0.10757471 0.11072702 0.45199999 4292092507
-0.10649364 0.11048205 0.45100001 4292224348
-0.10565058 0.11048205 0.45100001 4292029536
-0.10457511 0.11023708 0.44999999 4291374175
-0.1035034 0.10999211 0.449 4289476703
-0.10266407 0.10999211 0.449 4291859881
-0.10205151 0.11023708 0.44999999 4294958055
-0.10143523 0.11048205 0.45100001 4294958571
-0.10059216 0.11048205 0.45100001 4294095046
-0.10019144 0.11097199 0.45300001 4287702600
-0.099344626 0.11097199 0.45300001 4288422471
-0.098497815 0.11097199 0.45300001 4289080658
-0.097651005 0.11097199 0.45300001 4289943665
-0.097017892 0.11121696 0.454 4292449702
-0.096381038 0.11146194 0.45500001 4294949842
-0.095530495 0.11146194 0.45500001 4289870940
-0.094888039 0.11170691 0.456 4289148759
-0.094035618 0.11170691 0.456 4294884047
-0.093183205 0.11170691 0.456 4294950097
-0.092330784 0.11170691 0.456 4291916431
-0.09147837 0.11170691 0.456 4288168028
-0.090427212 0.11146194 0.45500001 4291005085
-0.089773536 0.11170691 0.456 4293642195
-0.088726118 0.11146194 0.45500001 4293314257
-0.087682433 0.11121696 0.454 4293248720
-0.086833753 0.11121696 0.454 4293378508
-0.086174473 0.11146194 0.45500001 4288638075
-0.08532393 0.11146194 0.45500001 4289230466
-0.084659033 0.11170691 0.456 4291598758
-0.10889938 0.11206549 0.454 4291962462
-0.10781271 0.11181866 0.45300001 4292027485
-0.1069659 0.11181866 0.45300001 4291962719
-0.10635335 0.11206549 0.454 4291111517
-0.10550468 0.11206549 0.454 4289872232
-0.10442548 0.11181866 0.45300001 4293900234
-0.10335001 0.11157181 0.45199999 4294630119
-0.1022783 0.11132497 0.45100001 4294102748
-0.10166013 0.11157181 0.45199999 4291600561
-0.10103824 0.11181866 0.45300001 4286201683
-0.10041261 0.11206549 0.454 4288108395
-0.099783234 0.11231234 0.45500001 4291335332
-0.098715246 0.11206549 0.454 4293639880
-0.097866565 0.11206549 0.454 4294692568
-0.097445279 0.11255918 0.456 4294955998
-0.096381038 0.11231234 0.45500001 4294225346
-0.095530495 0.11231234 0.45500001 4288685128
-0.094888039 0.11255918 0.456 4289931602
-0.094241835 0.11280601 0.45699999 4291773549
-0.093387552 0.11280601 0.45699999 4290325847
-0.092533261 0.11280601 0.45699999 4289996883
-0.091678977 0.11280601 0.45699999 4289474905
-0.090824693 0.11280601 0.45699999 4289286765
-0.089970402 0.11280601 0.45699999 4293310407
-0.088921115 0.11255918 0.456 4293510866
-0.087875567 0.11231234 0.45500001 4293314000
-0.087025024 0.11231234 0.45500001 4291075753
-0.086174473 0.11231234 0.45500001 4290286491
-0.085511446 0.11255918 0.456 4293247946
-0.085030347 0.11305286 0.458 4293247175
-0.10889938 0.11291402 0.454 4291634526
-0.1080507 0.11291402 0.454 4291767138
-0.10720202 0.11291402 0.454 4291178082
-0.10635335 0.11291402 0.454 4289675109
-0.10573707 0.11316273 0.45500001 4293373122
-0.104656 0.11291402 0.454 4294892265
-0.10335001 0.1124166 0.45199999 4293775839
-0.1022783 0.11216789 0.45100001 4293512154
-0.10166013 0.1124166 0.45199999 4291603642
-0.10103824 0.11266531 0.45300001 4292721609
-0.10041261 0.11291402 0.454 4294169567
-0.099783234 0.11316273 0.45500001 4294103514
-0.098932683 0.11316273 0.45500001 4294168278
-0.09808214 0.11316273 0.45500001 4294561496
-0.097445279 0.11341143 0.456 4293765306
-0.096804686 0.11366014 0.45699999 4288882250
-0.095950402 0.11366014 0.45699999 4290323280
-0.095096126 0.11366014 0.45699999 4290584655
-0.094035618 0.11341143 0.456 4290517836
-0.093183205 0.11341143 0.456 4290519632
-0.092533261 0.11366014 0.45699999 4290521172
-0.091879591 0.11390886 0.458 4289605204
-0.091023438 0.11390886 0.458 4289748598
-0.090561025 0.11440627 0.46000001 4293968591
-0.089311123 0.11390886 0.458 4293641680
-0.088068701 0.11341143 0.456 4291535790
-0.08721628 0.11341143 0.456 4289825686
-0.086363867 0.11341143 0.456 4293511375
-0.08569897 0.11366014 0.45699999 4293248973
-0.085216001 0.11415756 0.45899999 4293117129
-0.10889938 0.11376254 0.454 4291126922
-0.1080507 0.11376254 0.454 4291453319
-0.10743815 0.11401312 0.45500001 4288690527
-0.10658762 0.11401312 0.45500001 4292188337
-0.10596945 0.1142637 0.456 4294432485
-0.10488652 0.11401312 0.45500001 4293775840
-0.10380732 0.11376254 0.454 4293775326
-0.10295864 0.11376254 0.454 4293775840
-0.10188505 0.11351196 0.45300001 4293577947
-0.10126128 0.11376254 0.454 4293512667
-0.10063378 0.11401312 0.45500001 4293183700
-0.10000253 0.1142637 0.456 4293445586
-0.099150114 0.1142637 0.456 4293837519
-0.0982977 0.1142637 0.456 4289288816
-0.097658977 0.11451428 0.45699999 4288750408
-0.096804686 0.11451428 0.45699999 4290454096
-0.095950402 0.11451428 0.45699999 4290714699
-0.095096126 0.11451428 0.45699999 4290845515
-0.094035618 0.1142637 0.456 4290780492
-0.093183205 0.1142637 0.456 4290584653
-0.092533261 0.11451428 0.45699999 4289733709
-0.092080198 0.11501543 0.45899999 4289152866
-0.091222174 0.11501543 0.45899999 4293506755
-0.090561025 0.11526601 0.46000001 4294233301
-0.089701131 0.11526601 0.46000001 4293442760
-0.088261828 0.11451428 0.45699999 4287584874
-0.087407544 0.11451428 0.45699999 4289889679
-0.086553261 0.11451428 0.45699999 4293511375
-0.086074024 0.11501543 0.45899999 4293183180
-0.085216001 0.11501543 0.45899999 4293377735
-0.10913925 0.11486351 0.45500001 4294958832
-0.10828871 0.11486351 0.45500001 4290806682
-0.10743815 0.11486351 0.45500001 4290413209
-0.10658762 0.11486351 0.45500001 4294892526
-0.10573707 0.11486351 0.45500001 4294629609
-0.10488652 0.11486351 0.45500001 4294235108
-0.10403597 0.11486351 0.45500001 4294036702
-0.10295864 0.11461106 0.454 4293048524
-0.10210996 0.11461106 0.454 4292326340
-0.10126128 0.11461106 0.454 4293642200
-0.10063378 0.11486351 0.45500001 4293709017
-0.10000253 0.11511596 0.456 4293380306
-0.099367552 0.1153684 0.45699999 4294034128
-0.09851326 0.1153684 0.45699999 4286391357
-0.097658977 0.1153684 0.45699999 4288878657
-0.097016521 0.11562085 0.458 4290780494
-0.095950402 0.1153684 0.45699999 4291173453
-0.095096126 0.1153684 0.45699999 4290910024
-0.094035618 0.11511596 0.456 4290846799
-0.093183205 0.11511596 0.456 4290127954
-0.092533261 0.1153684 0.45699999 4289414498
-0.092080198 0.1158733 0.45899999 4293571778
-0.091222174 0.1158733 0.45899999 4294036692
-0.090561025 0.11612575 0.46000001 4292587706
-0.089701131 0.11612575 0.46000001 4287978092
-0.088454969 0.11562085 0.458 4288637818
-0.087407544 0.1153684 0.45699999 4292656838
-0.086742654 0.11562085 0.458 4293118157
-0.085886501 0.11562085 0.458 4293183437
-0.085401654 0.11612575 0.46000001 4291666861
-0.10913925 0.11571391 0.45500001 4293968596
-0.10828871 0.11571391 0.45500001 4287648618
-0.10743815 0.11571391 0.45500001 4293703629
-0.10635335 0.11545958 0.454 4293901778
-0.10573707 0.11571391 0.45500001 4292976827
-0.104656 0.11545958 0.454 4291653781
-0.10380732 0.11545958 0.454 4289872237
-0.10273186 0.11520527 0.45300001 4288492381
-0.10188505 0.11520527 0.45300001 4288567669
-0.10126128 0.11545958 0.454 4293904602
-0.10063378 0.11571391 0.45500001 4293380310
-0.10000253 0.11596822 0.456 4293314258
-0.099150114 0.11596822 0.456 4294232277
-0.09851326 0.11622253 0.45699999 4288628576
-0.097658977 0.11622253 0.45699999 4289667403
-0.096804686 0.11622253 0.45699999 4290713674
-0.095950402 0.11622253 0.45699999 4291106893
-0.095096126 0.11622253 0.45699999 4290648395
-0.094241835 0.11622253 0.45699999 4289797962
-0.093591906 0.11647686 0.458 4288823130
-0.092735745 0.11647686 0.458 4292519858
-0.092080198 0.11673117 0.45899999 4293511118
-0.091222174 0.11673117 0.45899999 4292393150
-0.090364151 0.11673117 0.45899999 4288576130
-0.089506127 0.11673117 0.45899999 4290614945
-0.088648096 0.11673117 0.45899999 4293313998
-0.087598816 0.11647686 0.458 4293183695
-0.086932048 0.11673117 0.45899999 4292987084
-0.086074024 0.11673117 0.45899999 4293117643
-0.085401654 0.11698548 0.46000001 4293180870
-0.10937911 0.11682049 0.456 4290142848
-0.1085267 0.11682049 0.456 4288883797
-0.10743815 0.11656431 0.45500001 4290721635
-0.10635335 0.11630812 0.454 4290455898
-0.10550468 0.11630812 0.454 4290192213
-0.104656 0.11630812 0.454 4290191188
-0.10380732 0.11630812 0.454 4290586203
-0.10295864 0.11630812 0.454 4290851685
-0.10188505 0.11605194 0.45300001 4290005872
-0.10126128 0.11630812 0.454 4293638091
-0.10063378 0.11656431 0.45500001 4293445331
-0.10000253 0.11682049 0.456 4293117134
-0.099367552 0.11707667 0.45699999 4294166997
-0.09851326 0.11707667 0.45699999 4288432480
-0.097658977 0.11707667 0.45699999 4289273159
-0.096804686 0.11707667 0.45699999 4290649678
-0.095950402 0.11707667 0.45699999 4290452812
-0.095096126 0.11707667 0.45699999 4288879427
-0.094241835 0.11707667 0.45699999 4289219686
-0.093591906 0.11733287 0.458 4293045689
-0.092938222 0.11758905 0.45899999 4293510092
-0.091879591 0.11733287 0.458 4292919494
-0.091023438 0.11733287 0.458 4292261053
-0.089970402 0.11707667 0.45699999 4293443531
-0.089506127 0.11758905 0.45899999 4293508554
-0.088648096 0.11758905 0.45899999 4290482075
-0.087598816 0.11733287 0.458 4291801785
-0.086932048 0.11758905 0.45899999 4292987084
-0.086074024 0.11758905 0.45899999 4293182409
-0.085401654 0.11784524 0.46000001 4292583342
-0.10961898 0.11793081 0.45699999 4288361816
-0.10876469 0.11793081 0.45699999 4290062679
-0.10767428 0.11767276 0.456 4290914392
-0.10658762 0.11741471 0.45500001 4291043923
-0.10573707 0.11741471 0.45500001 4291240020
-0.10511704 0.11767276 0.456 4290976080
-0.10426462 0.11767276 0.456 4290911058
-0.10318542 0.11741471 0.45500001 4290454357
-0.10233488 0.11741471 0.45500001 4288950103
-0.10148433 0.11741471 0.45500001 4293834698
-0.10085495 0.11767276 0.456 4293510609
-0.10022184 0.11793081 0.45699999 4293182412
-0.099584989 0.11818887 0.458 4294428370
-0.098728828 0.11818887 0.458 4288497245
-0.097872674 0.11818887 0.458 4289077833
-0.096804686 0.11793081 0.45699999 4289800272
-0.095950402 0.11793081 0.45699999 4290203501
-0.095304213 0.11818887 0.458 4292381599
-0.09444806 0.11818887 0.458 4294754511
-0.0940006 0.11870497 0.46000001 4293968075
-0.093140706 0.11870497 0.46000001 4293509321
-0.091879591 0.11818887 0.458 4293443785
-0.091023438 0.11818887 0.458 4293705163
-0.089970402 0.11793081 0.45699999 4291660960
-0.089311123 0.11818887 0.458 4288305260
-0.088841237 0.11870497 0.46000001 4289625483
-0.087981343 0.11870497 0.46000001 4293313995
-0.087121449 0.11870497 0.46000001 4293117387
-0.086261548 0.11870497 0.46000001 4293509835
-0.085772969 0.11922108 0.46200001 4289947260
-0.10985885 0.11904486 0.458 4288165463
-0.10876469 0.11878493 0.45699999 4289405262
-0.10767428 0.11852501 0.456 4291242330
-0.10682187 0.11852501 0.456 4291108432
-0.10596945 0.11852501 0.456 4290909771
-0.10511704 0.11852501 0.456 4291303503
-0.10426462 0.11852501 0.456 4291040845
-0.10318542 0.11826509 0.45500001 4290584402
-0.10233488 0.11826509 0.45500001 4289409368
-0.10148433 0.11826509 0.45500001 4294096073
-0.10085495 0.11852501 0.456 4293444816
-0.10022184 0.11878493 0.45699999 4293182412
-0.099367552 0.11878493 0.45699999 4294493649
-0.09851326 0.11878493 0.45699999 4287967308
-0.097658977 0.11878493 0.45699999 4289274185
-0.097016521 0.11904486 0.458 4290327641
-0.096370317 0.11930478 0.45899999 4293560740
-0.095512301 0.11930478 0.45899999 4294222520
-0.094860494 0.11956471 0.46000001 4292445852
-0.094204947 0.11982463 0.461 4289092462
-0.093140706 0.11956471 0.46000001 4293043636
-0.091879591 0.11904486 0.458 4293041839
-0.090824693 0.11878493 0.45699999 4288696936
-0.089970402 0.11878493 0.45699999 4288566634
-0.089506127 0.11930478 0.45899999 4291793313
-0.088648096 0.11930478 0.45899999 4291598758
-0.0881726 0.11982463 0.461 4292984004
-0.087500237 0.12008456 0.46200001 4293181896
-0.086824127 0.12034447 0.463 4294425290
-0.086144276 0.1206044 0.46399999 4289345368
-0.11057845 0.12068623 0.461 4292455353
-0.10924069 0.12016265 0.45899999 4293042356
-0.10814654 0.11990086 0.458 4294674602
-0.10705613 0.11963907 0.45699999 4290058312
-0.10620184 0.11963907 0.45699999 4290976077
-0.10534755 0.11963907 0.45699999 4291303502
-0.10449327 0.11963907 0.45699999 4290910285
-0.10363898 0.11963907 0.45699999 4290649681
-0.10255978 0.11937728 0.456 4289277784
-0.10170737 0.11937728 0.456 4293372092
-0.10107612 0.11963907 0.45699999 4293313228
-0.10044114 0.11990086 0.458 4293050567
-0.099367552 0.11963907 0.45699999 4294622669
-0.09851326 0.11963907 0.45699999 4287305785
-0.097658977 0.11963907 0.45699999 4289931086
-0.097016521 0.11990086 0.458 4290519886
-0.096580282 0.12042445 0.46000001 4290454607
-0.095928475 0.12068623 0.461 4290060878
-0.095066711 0.12068623 0.461 4289733196
-0.094613649 0.12120982 0.463 4289997652
-0.093748145 0.12120982 0.463 4289672023
-0.092682034 0.12094803 0.46200001 4288162634
-0.091023438 0.11990086 0.458 4289617780
-0.090757892 0.12068623 0.461 4293435058
-0.089896128 0.12068623 0.461 4289290613
-0.089420632 0.12120982 0.463 4289096827
-0.088363871 0.12094803 0.46200001 4292983747
-0.087689631 0.12120982 0.463 4293574857
-0.086824127 0.12120982 0.463 4292512929
-0.086144276 0.12147161 0.46399999 4288617795
-0.11081832 0.12181151 0.46200001 4293575374
-0.10947869 0.12128419 0.46000001 4294886102
-0.10838266 0.12102052 0.45899999 4290727536
-0.10752464 0.12102052 0.45899999 4289861959
-0.10643423 0.12075686 0.458 4290910540
-0.10557808 0.12075686 0.458 4290975820
-0.10472192 0.12075686 0.458 4290844235
-0.10386577 0.12075686 0.458 4290648911
-0.10278469 0.1204932 0.45699999 4289474135
-0.10193041 0.1204932 0.45699999 4293898948
-0.1012973 0.12075686 0.458 4293246922
-0.10066044 0.12102052 0.45899999 4293312201
-0.09980242 0.12102052 0.45899999 4294423237
-0.099375524 0.12154784 0.461 4287763000
-0.098727457 0.12181151 0.46200001 4290388301
-0.097863823 0.12181151 0.46200001 4290780747
-0.096790232 0.12154784 0.461 4290781003
-0.095928475 0.12154784 0.461 4290453067
-0.095066711 0.12154784 0.461 4290257744
-0.094613649 0.12207516 0.463 4289866065
-0.093748145 0.12207516 0.463 4288621132
-0.092682034 0.12181151 0.46200001 4290275454
-0.091619655 0.12154784 0.461 4293701052
-0.090757892 0.12154784 0.461 4288302948
-0.089896128 0.12154784 0.461 4286858581
-0.089420632 0.12207516 0.463 4292258483
-0.088746391 0.12233882 0.46399999 4293312198
-0.087879017 0.12233882 0.46399999 4294753741
-0.087199174 0.12260249 0.465 4290530412
-0.086515591 0.12286615 0.46599999 4289340235
-0.11057845 0.12240945 0.461 4293903827
-0.10924069 0.12187839 0.45899999 4291262866
-0.10838266 0.12187839 0.45899999 4288619080
-0.10752464 0.12187839 0.45899999 4290388560
-0.10666662 0.12187839 0.45899999 4290517836
-0.10557808 0.12161286 0.458 4290846031
-0.10449327 0.12134732 0.45699999 4290517323
-0.10363898 0.12134732 0.45699999 4290256463
-0.10278469 0.12134732 0.45699999 4289211989
-0.10193041 0.12134732 0.45699999 4293701313
-0.1012973 0.12161286 0.458 4293246665
-0.10066044 0.12187839 0.45899999 4293311688
-0.09980242 0.12187839 0.45899999 4292976047
-0.099375524 0.12240945 0.461 4288155961
-0.098727457 0.12267498 0.46200001 4290517577
-0.097863823 0.12267498 0.46200001 4290517575
-0.096790232 0.12240945 0.461 4290518344
-0.095928475 0.12240945 0.461 4290060103
-0.095066711 0.12240945 0.461 4288945475
-0.094613649 0.12294051 0.463 4289020766
-0.093950622 0.12320603 0.46399999 4291532450
-0.093283862 0.12347157 0.465 4293443271
-0.092215881 0.12320603 0.46399999 4293246148
-0.091348507 0.12320603 0.46399999 4289233032
-0.090481132 0.12320603 0.46399999 4291601837
-0.089806899 0.12347157 0.465 4293905361
-0.089128919 0.1237371 0.46599999 4294494419
-0.088257812 0.1237371 0.46599999 4292772764
-0.087386698 0.1237371 0.46599999 4289078603
-0.086701244 0.12400264 0.46700001 4289473874
-0.11057845 0.12327106 0.461 4293441736
-0.10971668 0.12327106 0.461 4288233821
-0.1086188 0.12300365 0.46000001 4288488008
-0.10799316 0.12327106 0.461 4289933142
-0.10689902 0.12300365 0.46000001 4291974265
-0.10557808 0.12246886 0.458 4291444072
-0.10472192 0.12246886 0.458 4290189901
-0.10386577 0.12246886 0.458 4290257234
-0.10278469 0.12220146 0.45699999 4289147736
-0.10193041 0.12220146 0.45699999 4293438140
-0.1012973 0.12246886 0.458 4293114309
-0.10066044 0.12273625 0.45899999 4293508040
-0.09980242 0.12273625 0.45899999 4290340478
-0.099375524 0.12327106 0.461 4288354367
-0.098941155 0.12380585 0.463 4290191179
-0.098075651 0.12380585 0.463 4289927494
-0.096790232 0.12327106 0.461 4289010495
-0.095720388 0.12300365 0.46000001 4289414495
-0.095066711 0.12327106 0.461 4291988124
-0.094409302 0.12353846 0.46200001 4293899972
-0.094153106 0.12434065 0.465 4293047742
-0.093283862 0.12434065 0.465 4293773005
-0.092414625 0.12434065 0.465 4293051336
-0.091545381 0.12434065 0.465 4293050824
-0.090676144 0.12434065 0.465 4293707726
-0.089806899 0.12434065 0.465 4294691284
-0.089128919 0.12460805 0.46599999 4291787665
-0.088257812 0.12460805 0.46599999 4288750408
-0.087386698 0.12460805 0.46599999 4289472848
-0.086515591 0.12460805 0.46599999 4289281628
-0.11057845 0.12413267 0.461 4293311432
-0.10971668 0.12413267 0.461 4290344329
-0.10885492 0.12413267 0.461 4289879671
-0.10822742 0.12440195 0.46200001 4292842151
-0.1071314 0.12413267 0.461 4293828275
-0.10580859 0.12359414 0.45899999 4289937762
-0.10472192 0.12332487 0.458 4289470025
-0.10386577 0.12332487 0.458 4289995858
-0.10278469 0.1230556 0.45699999 4288754261
-0.10170737 0.12278634 0.456 4293242045
-0.10107612 0.1230556 0.45699999 4292917700
-0.10044114 0.12332487 0.458 4293835209
-0.10001986 0.12386341 0.46000001 4287311177
-0.099375524 0.12413267 0.461 4288091196
-0.098941155 0.12467121 0.463 4289274185
-0.098075651 0.12467121 0.463 4289741410
-0.097000197 0.12440195 0.46200001 4291461011
-0.09613657 0.12440195 0.46200001 4294162117
-0.095272936 0.12440195 0.46200001 4294754768
-0.094613649 0.12467121 0.463 4291725209
-0.094153106 0.12520975 0.465 4288633451
-0.093484469 0.12547901 0.46599999 4292850364
-0.092613362 0.12547901 0.46599999 4294036691
-0.091742247 0.12547901 0.46599999 4294168020
-0.09087114 0.12547901 0.46599999 4293902795
-0.090000033 0.12547901 0.46599999 4291523980
-0.08932019 0.12574829 0.46700001 4289012810
-0.088447206 0.12574829 0.46700001 4289998678
-0.087574229 0.12574829 0.46700001 4288820821
-0.086701244 0.12574829 0.46700001 4292581802
-0.11033858 0.12472314 0.46000001 4293903824
-0.10947869 0.12472314 0.46000001 4293903566
-0.10885492 0.12499428 0.461 4294098892
-0.10822742 0.12526542 0.46200001 4292779437
-0.1071314 0.12499428 0.461 4288103001
-0.10580859 0.124452 0.45899999 4290006378
-0.10472192 0.12418087 0.458 4290395747
-0.10363898 0.12390973 0.45699999 4289078862
-0.10278469 0.12390973 0.45699999 4288757855
-0.10170737 0.12363859 0.456 4293835209
-0.10085495 0.12363859 0.456 4293180615
-0.10022184 0.12390973 0.45699999 4292324280
-0.09980242 0.124452 0.45899999 4286529106
-0.099159963 0.12472314 0.46000001 4290673292
-0.098941155 0.12553656 0.463 4292125615
-0.098075651 0.12553656 0.463 4293902538
-0.097000197 0.12526542 0.46200001 4294625491
-0.09613657 0.12526542 0.46200001 4294161346
-0.095272936 0.12526542 0.46200001 4290927737
-0.094613649 0.12553656 0.463 4289734479
-0.094153106 0.12607883 0.465 4289997908
-0.093083248 0.12580769 0.46399999 4290593638
-0.092613362 0.12634997 0.46599999 4290925940
-0.091742247 0.12634997 0.46599999 4290859634
-0.09087114 0.12634997 0.46599999 4289606230
-0.090193167 0.12662111 0.46700001 4289406028
-0.08932019 0.12662111 0.46700001 4290063958
-0.088447206 0.12662111 0.46700001 4289279575
-0.087574229 0.12662111 0.46700001 4292447906
-0.086886898 0.12689224 0.46799999 4294553793
-0.11033858 0.12558289 0.46000001 4292321968
-0.10971668 0.12585588 0.461 4292256944
-0.10909105 0.1261289 0.46200001 4290015875
-0.10846168 0.1264019 0.463 4287446869
-0.10759617 0.1264019 0.463 4289290356
-0.10650016 0.1261289 0.46200001 4294224574
-0.10495057 0.12530987 0.45899999 4288822364
-0.10386577 0.12503687 0.458 4288492374
-0.10278469 0.12476385 0.45699999 4290740628
-0.10193041 0.12476385 0.45699999 4293443789
-0.10107612 0.12476385 0.45699999 4292853706
-0.10022184 0.12476385 0.45699999 4292327618
-0.09980242 0.12530987 0.45899999 4292391870
-0.098944396 0.12530987 0.45899999 4293904080
-0.098727457 0.1261289 0.46200001 4294364117
-0.097863823 0.1261289 0.46200001 4294298323
-0.097210146 0.1264019 0.463 4292909740
-0.09634465 0.1264019 0.463 4289672793
-0.095479153 0.1264019 0.463 4289929806
-0.094817996 0.12667491 0.46399999 4290519889
-0.093950622 0.12667491 0.46399999 4290257743
-0.093083248 0.12667491 0.46399999 4289932629
-0.092414625 0.12694791 0.465 4289213012
-0.091545381 0.12694791 0.465 4290003555
-0.09087114 0.12722091 0.46599999 4290066524
-0.090193167 0.12749393 0.46700001 4289275468
-0.08932019 0.12749393 0.46700001 4289343572
-0.088447206 0.12749393 0.46700001 4292509079
-0.087761752 0.12776692 0.46799999 4293759914
-0.086886898 0.12776692 0.46799999 4290466157
-0.11057845 0.12671749 0.461 4288887897
-0.10995468 0.12699237 0.46200001 4288035669
-0.10932717 0.12726724 0.463 4288629860
-0.10869593 0.12754211 0.46399999 4291463578
-0.10782856 0.12754211 0.46399999 4294361037
-0.10650016 0.12699237 0.46200001 4291662242
-0.10495057 0.12616774 0.45899999 4288043115
-0.10409255 0.12616774 0.45899999 4293112258
-0.10300961 0.12589286 0.458 4292984008
-0.10215345 0.12589286 0.458 4293116108
-0.1012973 0.12589286 0.458 4292919242
-0.10044114 0.12589286 0.458 4292919242
-0.09980242 0.12616774 0.45899999 4293509324
-0.099159963 0.12644263 0.46000001 4293640651
-0.098727457 0.12699237 0.46200001 4292585139
-0.098075651 0.12726724 0.463 4290731128
-0.097210146 0.12726724 0.463 4289075523
-0.09634465 0.12726724 0.463 4290126158
-0.095479153 0.12726724 0.463 4290388559
-0.094817996 0.12754211 0.46399999 4290125642
-0.094153106 0.12781699 0.465 4289864780
-0.093484469 0.12809187 0.46599999 4290531180
-0.092613362 0.12809187 0.46599999 4292577179
-0.091742247 0.12809187 0.46599999 4293763507
-0.091066144 0.12836674 0.46700001 4294616252
-0.090386294 0.12864162 0.46799999 4290660458
-0.089511447 0.12864162 0.46799999 4290791531
-0.088636599 0.12864162 0.46799999 4291846784
-0.087761752 0.12864162 0.46799999 4289806173
-0.086701244 0.12836674 0.46700001 4290002782
-0.11057845 0.12757909 0.461 4291388802
-0.10995468 0.12785585 0.46200001 4291791002
-0.10932717 0.12813258 0.463 4292981437
-0.10869593 0.12840933 0.46399999 4293772494
-0.10782856 0.12840933 0.46399999 4293967564
-0.10650016 0.12785585 0.46200001 4287581794
-0.10540787 0.12757909 0.461 4289492871
-0.10409255 0.1270256 0.45899999 4294035411
-0.10323452 0.1270256 0.45899999 4293050314
-0.10215345 0.12674886 0.458 4293116878
-0.10151847 0.1270256 0.45899999 4293115850
-0.10044114 0.12674886 0.458 4292982209
-0.10001986 0.12730235 0.46000001 4291331995
-0.099375524 0.12757909 0.461 4289544545
-0.098727457 0.12785585 0.46200001 4288880197
-0.098075651 0.12813258 0.463 4289074497
-0.097210146 0.12813258 0.463 4289468741
-0.09634465 0.12813258 0.463 4289862472
-0.095479153 0.12813258 0.463 4290323793
-0.094817996 0.12840933 0.46399999 4289339462
-0.094355583 0.12896281 0.46599999 4290400621
