# .PCD v0.7 - Point Cloud Data file format
VERSION 0.7
FIELDS x y z rgba
SIZE 4 4 4 4
TYPE F F F U
COUNT 1 1 1 1
WIDTH 1070
HEIGHT 1
VIEWPOINT 0 0 0 1 0 0 0
POINTS 1070
DATA ascii
-0.18566684 0.1375338 0.60265285 4278190335
-0.18547186 0.13762867 0.60299325 4278190335
-0.18527614 0.13772376 0.60333455 4278190335
-0.18507986 0.13781929 0.60367727 4278190335
-0.18488276 0.137915 0.60402083 4278190335
-0.18468516 0.13801116 0.60436583 4278190335
-0.18448676 0.13810752 0.60471177 4278190335
-0.18428779 0.13820434 0.60505909 4278190335
-0.18408819 0.13830146 0.60540754 4278190335
-0.18388776 0.13839883 0.605757 4278190335
-0.18368679 0.13849661 0.60610789 4278190335
-0.18348503 0.13859463 0.60645974 4278190335
-0.18328264 0.13869308 0.60681295 4278190335
-0.18307954 0.13879177 0.60716724 4278190335
-0.18287578 0.13889091 0.60752285 4278190335
-0.18267137 0.13899037 0.60787964 4278190335
-0.18246613 0.13909006 0.60823762 4278190335
-0.1822603 0.13919023 0.60859692 4278190335
-0.18205366 0.13929062 0.60895729 4278190335
-0.18184642 0.13939147 0.60931909 4278190335
-0.18163845 0.13949266 0.60968208 4278190335
-0.18142964 0.13959406 0.61004615 4278190335
-0.18122023 0.13969597 0.61041176 4278190335
-0.18101001 0.1397981 0.61077839 4278190335
-0.18079913 0.1399007 0.61114645 4278190335
-0.18058741 0.14000355 0.61151564 4278190335
-0.18037507 0.14010687 0.61188632 4278190335
-0.18016201 0.14021055 0.61225826 4278190335
-0.17994805 0.14031446 0.61263132 4278190335
-0.17973348 0.14041887 0.61300588 4278190335
-0.17951807 0.14052352 0.61338156 4278190335
-0.17930196 0.14062867 0.6137588 4278190335
-0.17908514 0.14073418 0.61413729 4278190335
-0.17886741 0.14083993 0.61451697 4278190335
-0.17864901 0.14094618 0.61489815 4278190335
-0.17842977 0.14105271 0.61528051 4278190335
-0.17820983 0.14115973 0.61566448 4278190335
-0.17798901 0.14126699 0.61604953 4278190335
-0.17776753 0.14137478 0.61643618 4278190335
-0.17754523 0.14148293 0.61682421 4278190335
-0.17732204 0.14159136 0.61721343 4278190335
-0.17709816 0.14170028 0.61760426 4278190335
-0.17687339 0.14180949 0.61799622 4278190335
-0.1766479 0.14191921 0.61838984 4278190335
-0.17642157 0.14202932 0.6187849 4278190335
-0.17619434 0.1421397 0.61918116 4278190335
-0.17596641 0.14225063 0.61957908 4278190335
-0.17573763 0.14236192 0.61997837 4278190335
-0.17550795 0.14247352 0.62037897 4278190335
-0.17527752 0.14258564 0.62078118 4278190335
-0.17504625 0.14269817 0.62118489 4278190335
-0.17481403 0.14281097 0.6215899 4278190335
-0.17458107 0.14292432 0.62199652 4278190335
-0.17434727 0.14303809 0.62240463 4278190335
-0.17411247 0.14315213 0.62281406 4278190335
-0.17389642 0.14329164 0.62326419 4278190335
-0.17374708 0.14351892 0.62385303 4278190335
-0.17379206 0.14400122 0.62484467 4278190335
-0.20740338 0.15028752 0.61316013 4278190335
-0.20532009 0.14882702 0.6115675 4278190335
-0.20332237 0.14742646 0.61004025 4278190335
-0.20140512 0.14608234 0.60857451 4278190335
-0.19956386 0.1447915 0.60716701 4278190335
-0.19779377 0.14355054 0.60581374 4278190335
-0.19609097 0.14235675 0.60451198 4278190335
-0.1944523 0.14120802 0.60325938 4278190335
-0.19287345 0.14010121 0.60205257 4278190335
-0.19135155 0.13903433 0.60088927 4278190335
-0.19007319 0.13817263 0.59998465 4278190335
-0.1893702 0.13781308 0.59972811 4278190335
-0.18883342 0.13759823 0.59965801 4278190335
-0.18838827 0.13746338 0.59969115 4278190335
-0.18800578 0.13738358 0.59979564 4278190335
-0.18767127 0.13734639 0.59995568 4278190335
-0.18737838 0.1373466 0.60016489 4278190335
-0.18712403 0.13738194 0.60042071 4278190335
-0.18690842 0.13745309 0.60072434 4278190335
-0.18671693 0.13754714 0.60105896 4278190335
-0.1865247 0.13764139 0.60139459 4278190335
-0.18633191 0.13773605 0.60173154 4278190335
-0.18613839 0.13783093 0.60206938 4278190335
-0.18594438 0.13792624 0.60240853 4278190335
-0.18574966 0.13802186 0.60274875 4278190335
-0.18555419 0.13811769 0.60309005 4278190335
-0.18535817 0.13821395 0.60343254 4278190335
-0.1851614 0.13831042 0.6037761 4278190335
-0.18496408 0.13840735 0.60412103 4278190335
-0.1847661 0.13850458 0.60446703 4278190335
-0.1845673 0.13860203 0.60481405 4278190335
-0.18436797 0.13869992 0.60516244 4278190335
-0.18416785 0.13879804 0.60551184 4278190335
-0.18396717 0.1388966 0.60586256 4278190335
-0.18376568 0.13899539 0.6062144 4278190335
-0.1835636 0.13909462 0.6065675 4278190335
-0.18336089 0.13919421 0.60692179 4278190335
-0.18315734 0.139294 0.60727721 4278190335
-0.18295318 0.13939425 0.60763395 4278190335
-0.18274823 0.13949473 0.60799181 4278190335
-0.18254268 0.13959567 0.60835099 4278190335
-0.18233646 0.13969699 0.60871148 4278190335
-0.18212935 0.13979849 0.60907298 4278190335
-0.18192172 0.13990049 0.60943592 4278190335
-0.18171322 0.14000271 0.60979998 4278190335
-0.18150409 0.14010541 0.61016542 4278190335
-0.18129414 0.14020835 0.61053193 4278190335
-0.18108356 0.14031176 0.61089998 4278190335
-0.18087226 0.14041553 0.61126924 4278190335
-0.1806601 0.14051956 0.61163974 4278190335
-0.18044734 0.14062406 0.61201155 4278190335
-0.1802337 0.1407288 0.61238456 4278190335
-0.18001939 0.14083403 0.61275899 4278190335
-0.17980428 0.14093952 0.61313462 4278190335
-0.1795885 0.1410455 0.6135118 4278190335
-0.17937194 0.14115185 0.61389029 4278190335
-0.17915452 0.14125845 0.61426985 4278190335
-0.17893644 0.14136556 0.61465096 4278190335
-0.17871748 0.14147292 0.61503327 4278190335
-0.17849785 0.14158079 0.61541712 4278190335
-0.17827743 0.14168903 0.61580235 4278190335
-0.17805609 0.14179753 0.61618876 4278190335
-0.17783412 0.14190656 0.61657667 4278190335
-0.17761122 0.14201583 0.61696583 4278190335
-0.17738762 0.14212565 0.61735666 4278190335
-0.17716314 0.14223571 0.61774856 4278190335
-0.17693792 0.14234629 0.61814213 4278190335
-0.17671195 0.14245731 0.61853707 4278190335
-0.17648502 0.14256856 0.61893332 4278190335
-0.17625737 0.14268036 0.61933112 4278190335
-0.17602891 0.14279255 0.61973041 4278190335
-0.17579949 0.14290503 0.62013096 4278190335
-0.17556937 0.14301805 0.62053311 4278190335
-0.17533843 0.14313148 0.62093675 4278190335
-0.1751065 0.14324519 0.62134171 4278190335
-0.17487386 0.14335945 0.62174827 4278190335
-0.17464034 0.14347413 0.62215638 4278190335
-0.17440586 0.14358909 0.62256575 4278190335
-0.17417064 0.14370462 0.6229769 4278190335
-0.17395712 0.14384967 0.62343472 4278190335
-0.17382704 0.14410493 0.62406528 4278190335
-0.1739452 0.14468795 0.62520957 4278190335
-0.20769942 0.15102981 0.61344492 4278190335
-0.20560011 0.14954676 0.61183882 4278190335
-0.20358777 0.14812519 0.61029929 4278190335
-0.20165676 0.14676102 0.60882187 4278190335
-0.19980252 0.14545113 0.60740328 4278190335
-0.19802029 0.14419207 0.60603976 4278190335
-0.19630611 0.1429811 0.60472822 4278190335
-0.19465654 0.14181584 0.60346639 4278190335
-0.1930678 0.14069356 0.60225105 4278190335
-0.19153626 0.13961168 0.6010794 4278190335
-0.19020456 0.13869748 0.60011613 4278190335
-0.18948774 0.13832387 0.59984553 4278190335
-0.18894222 0.13810045 0.59976697 4278190335
-0.18849063 0.13795958 0.59979421 4278190335
-0.18810326 0.13787556 0.59989452 4278190335
-0.18776487 0.13783528 0.60005146 4278190335
-0.18746845 0.13783297 0.60025793 4278190335
-0.18721107 0.1378665 0.60051155 4278190335
-0.18699391 0.13793744 0.6008147 4278190335
-0.18680184 0.13803232 0.6011501 4278190335
-0.18660937 0.13812773 0.60148692 4278190335
-0.18641627 0.13822345 0.60182476 4278190335
-0.18622237 0.13831939 0.60216367 4278190335
-0.18602797 0.13841575 0.6025039 4278190335
-0.18583278 0.13851234 0.60284507 4278190335
-0.18563706 0.13860933 0.60318744 4278190335
-0.18544057 0.13870658 0.60353094 4278190335
-0.18524352 0.13880424 0.60387576 4278190335
-0.18504584 0.13890225 0.60422164 4278190335
-0.18484733 0.13900046 0.6045686 4278190335
-0.18464828 0.13909912 0.60491687 4278190335
-0.18444848 0.13919801 0.60526621 4278190335
-0.18424805 0.13929734 0.60561681 4278190335
-0.18404697 0.13939701 0.60596871 4278190335
-0.18384512 0.13949692 0.60632157 4278190335
-0.18364264 0.13959727 0.6066758 4278190335
-0.18343939 0.13969785 0.60703111 4278190335
-0.18323554 0.13979888 0.60738778 4278190335
-0.1830309 0.13990016 0.60774553 4278190335
-0.18282564 0.14000191 0.60810465 4278190335
-0.18261968 0.14010398 0.60846502 4278190335
-0.18241288 0.14020631 0.60882652 4278190335
-0.1822055 0.1403091 0.60918933 4278190335
-0.18199728 0.14041212 0.60955322 4278190335
-0.18178847 0.14051564 0.60991865 4278190335
-0.18157893 0.1406195 0.61028528 4278190335
-0.18136856 0.14072362 0.61065304 4278190335
-0.18115754 0.14082821 0.61102229 4278190335
-0.18094568 0.14093304 0.61139262 4278190335
-0.1807332 0.14103837 0.61176443 4278190335
-0.18051986 0.14114395 0.61213732 4278190335
-0.18030588 0.14125 0.61251175 4278190335
-0.18009111 0.14135644 0.6128875 4278190335
-0.17987554 0.14146313 0.61326432 4278190335
-0.17965928 0.14157033 0.61364275 4278190335
-0.17944217 0.14167777 0.61402225 4278190335
-0.17922436 0.14178571 0.61440337 4278190335
-0.17900583 0.14189406 0.61478573 4278190335
-0.1787864 0.14200264 0.61516929 4278190335
-0.17856626 0.14211175 0.61555445 4278190335
-0.17834526 0.14222112 0.61594081 4278190335
-0.17812356 0.142331 0.61632872 4278190335
-0.17790094 0.14244115 0.61671782 4278190335
-0.17767768 0.14255182 0.61710846 4278190335
-0.17745361 0.14266291 0.6175006 4278190335
-0.17722858 0.14277424 0.61789387 4278190335
-0.17700288 0.14288612 0.61828882 4278190335
-0.17677628 0.14299826 0.61868501 4278190335
-0.17654893 0.14311095 0.61908269 4278190335
-0.17632078 0.14322405 0.61948198 4278190335
-0.17609164 0.14333741 0.6198824 4278190335
-0.17586184 0.14345133 0.62028456 4278190335
-0.17563115 0.14356567 0.6206882 4278190335
-0.17539956 0.14368029 0.62109303 4278190335
-0.1751672 0.14379546 0.6214996 4278190335
-0.174934 0.14391105 0.62190759 4278190335
-0.17469981 0.14402692 0.62231696 4278190335
-0.1744649 0.14414336 0.62272799 4278190335
-0.17422912 0.14426024 0.62314057 4278190335
-0.17402114 0.14441481 0.62361217 4278190335
-0.1739075 0.14469483 0.62427896 4278190335
-0.17416973 0.14547338 0.62572074 4278190335
-0.20588289 0.15027331 0.61211276 4278190335
-0.2038556 0.14883024 0.61056066 4278190335
-0.20191059 0.14744568 0.60907137 4278190335
-0.20004311 0.14611633 0.60764146 4278190335
-0.19824876 0.14483908 0.60626769 4278190335
-0.19652304 0.14361063 0.60494637 4278190335
-0.19486253 0.14242867 0.60367501 4278190335
-0.19326361 0.14129058 0.60245097 4278190335
-0.19172259 0.14019372 0.60127127 4278190335
-0.19035052 0.139238 0.60026431 4278190335
-0.1896061 0.13883783 0.59996378 4278190335
-0.18905151 0.13860543 0.5998764 4278190335
-0.18859367 0.13845865 0.59989792 4278190335
-0.18820141 0.13837032 0.59999406 4278190335
-0.18785898 0.13832679 0.60014772 4278190335
-0.18755898 0.13832191 0.60035139 4278190335
-0.18729855 0.13835357 0.60060281 4278190335
-0.18708093 0.13842531 0.60090685 4278190335
-0.18688729 0.13852009 0.60124183 4278190335
-0.18669447 0.13861658 0.60157967 4278190335
-0.18650088 0.13871326 0.60191846 4278190335
-0.18630679 0.1388104 0.60225856 4278190335
-0.18611187 0.1389077 0.60259962 4278190335
-0.18591644 0.13900548 0.60294193 4278190335
-0.18572034 0.13910358 0.60328543 4278190335
-0.18552348 0.13920188 0.60362995 4278190335
-0.18532605 0.13930064 0.60397583 4278190335
-0.18512788 0.13939963 0.60432267 4278190335
-0.1849291 0.13949905 0.60467088 4278190335
-0.18472973 0.13959883 0.60502023 4278190335
-0.18452947 0.13969883 0.60537064 4278190335
-0.18432869 0.13979928 0.60572237 4278190335
-0.18412711 0.13989995 0.60607517 4278190335
-0.18392496 0.14000109 0.60642934 4278190335
-0.18372196 0.14010246 0.60678452 4278190335
-0.18351838 0.14020428 0.60714114 4278190335
-0.18331414 0.14030647 0.60749894 4278190335
-0.18310909 0.14040887 0.60785782 4278190335
-0.18290344 0.14051177 0.60821807 4278190335
-0.18269695 0.14061488 0.60857946 4278190335
-0.18248989 0.14071849 0.60894227 4278190335
-0.18228194 0.14082232 0.6093061 4278190335
-0.18207344 0.14092664 0.60967141 4278190335
-0.18186417 0.14103132 0.61003798 4278190335
-0.18165408 0.14113626 0.61040568 4278190335
-0.18144336 0.14124167 0.61077476 4278190335
-0.1812318 0.14134732 0.61114502 4278190335
-0.18101963 0.14145347 0.61151677 4278190335
-0.1808067 0.14156 0.61188978 4278190335
-0.18059288 0.14166677 0.61226392 4278190335
-0.18037845 0.14177404 0.61263961 4278190335
-0.18016316 0.14188159 0.61301643 4278190335
-0.1799472 0.1419896 0.61339474 4278190335
-0.17973037 0.14209789 0.61377418 4278190335
-0.17951289 0.1422067 0.61415517 4278190335
-0.17929463 0.14231588 0.61453748 4278190335
-0.17907549 0.14242534 0.61492109 4278190335
-0.17885567 0.1425353 0.61530614 4278190335
-0.17863496 0.14264554 0.61569238 4278190335
-0.17841353 0.14275627 0.61608022 4278190335
-0.17819138 0.14286743 0.6164695 4278190335
-0.17796828 0.14297885 0.61685991 4278190335
-0.17774451 0.1430908 0.61725193 4278190335
-0.17751978 0.14320302 0.61764514 4278190335
-0.17729439 0.14331578 0.61804008 4278190335
-0.17706808 0.14342882 0.6184361 4278190335
-0.17684107 0.14354241 0.6188339 4278190335
-0.17661318 0.14365639 0.61923301 4278190335
-0.17638437 0.14377065 0.61963344 4278190335
-0.17615485 0.14388546 0.62003553 4278190335
-0.17592452 0.14400072 0.62043905 4278190335
-0.17569318 0.14411624 0.62084389 4278190335
-0.17546117 0.14423233 0.62125039 4278190335
-0.17522824 0.14434883 0.62165833 4278190335
-0.17499439 0.14446564 0.62206769 4278190335
-0.17475975 0.144583 0.62247866 4278190335
-0.17452428 0.14470081 0.62289119 4278190335
-0.174289 0.14482042 0.62330735 4278190335
-0.17409021 0.14498945 0.6238001 4278190335
-0.17398864 0.14528883 0.62449431 4278190335
-0.20616832 0.15100661 0.61238939 4278190335
-0.20412569 0.14954153 0.61082417 4278190335
-0.20216668 0.14813644 0.60932308 4278190335
-0.20028594 0.14678748 0.60788196 4278190335
-0.19847916 0.14549159 0.60649753 4278190335
-0.19674179 0.14424545 0.60516626 4278190335
-0.19507018 0.1430465 0.60388541 4278190335
-0.19346094 0.14189237 0.60265255 4278190335
-0.19191025 0.14078023 0.60146451 4278190335
-0.19050664 0.13979045 0.60042393 4278190335
-0.18972506 0.13935477 0.60008264 4278190335
-0.18916132 0.13911322 0.59998631 4278190335
-0.18869714 0.13896042 0.60000211 4278190335
-0.18830007 0.13886778 0.60009408 4278190335
-0.18795358 0.13882095 0.60024452 4278190335
-0.18765007 0.13881351 0.60044551 4278190335
-0.18738647 0.13884316 0.60069454 4278190335
-0.18716842 0.1389157 0.60099959 4278190335
-0.18697321 0.13901043 0.60133404 4278190335
-0.18677993 0.13910787 0.60167277 4278190335
-0.1865861 0.13920574 0.60201275 4278190335
-0.18639159 0.13930391 0.60235381 4278190335
-0.18619634 0.13940233 0.60269594 4278190335
-0.18600056 0.13950118 0.60303938 4278190335
-0.18580396 0.13960026 0.60338378 4278190335
-0.18560687 0.1396998 0.60372949 4278190335
-0.18540895 0.13979954 0.60407627 4278190335
-0.18521047 0.13989975 0.60442436 4278190335
-0.18501134 0.14000028 0.60477364 4278190335
-0.1848114 0.14010106 0.605124 4278190335
-0.18461092 0.1402023 0.60547566 4278190335
-0.18440963 0.14030375 0.60582829 4278190335
-0.18420777 0.14040567 0.6061824 4278190335
-0.18400522 0.14050794 0.6065377 4278190335
-0.18380183 0.14061046 0.60689402 4278190335
-0.18359786 0.14071342 0.60725176 4278190335
-0.18339311 0.14081664 0.60761058 4278190335
-0.18318775 0.14092033 0.60797071 4278190335
-0.18298152 0.14102425 0.60833204 4278190335
-0.18277472 0.14112864 0.60869467 4278190335
-0.18256722 0.14123341 0.60905868 4278190335
-0.18235891 0.14133842 0.6094237 4278190335
-0.18214998 0.14144394 0.60979021 4278190335
-0.18194017 0.14154968 0.61015779 4278190335
-0.18172973 0.14165591 0.61052686 4278190335
-0.18151858 0.14176252 0.61089718 4278190335
-0.18130659 0.14186937 0.61126864 4278190335
-0.18109396 0.14197674 0.61164165 4278190335
-0.18088046 0.14208435 0.61201572 4278190335
-0.18066633 0.14219247 0.61239123 4278190335
-0.18045129 0.14230081 0.61276799 4278190335
-0.18023565 0.1424097 0.61314619 4278190335
-0.18001924 0.14251897 0.61352581 4278190335
-0.17980197 0.14262851 0.61390662 4278190335
-0.17958397 0.14273854 0.61428881 4278190335
-0.17936516 0.14284885 0.6146723 4278190335
-0.17914562 0.14295968 0.61505735 4278190335
-0.17892522 0.14307077 0.61544347 4278190335
-0.17870413 0.1431824 0.61583126 4278190335
-0.17848223 0.14329441 0.61622041 4278190335
-0.17825948 0.14340672 0.61661077 4278190335
-0.17803599 0.14351955 0.61700279 4278190335
-0.17781159 0.14363265 0.61739594 4278190335
-0.17758651 0.1437463 0.61779076 4278190335
-0.17736056 0.14386036 0.61818695 4278190335
-0.17713375 0.14397471 0.61858451 4278190335
-0.1769062 0.14408959 0.61898363 4278190335
-0.1766777 0.14420475 0.61938393 4278190335
-0.17644846 0.14432047 0.6197859 4278190335
-0.17621841 0.14443663 0.62018943 4278190335
-0.17598744 0.14455308 0.62059426 4278190335
-0.17575566 0.14467007 0.62100065 4278190335
-0.17552307 0.14478751 0.62140864 4278190335
-0.17528953 0.14490524 0.62181789 4278190335
-0.17505521 0.14502352 0.62222886 4278190335
-0.17482004 0.14514226 0.62264132 4278190335
-0.17458387 0.1452613 0.6230551 4278190335
-0.17435122 0.1453865 0.62347913 4278190335
-0.17415981 0.14556776 0.62398934 4278190335
-0.17407025 0.14588667 0.6247108 4278190335
-0.20645639 0.15174672 0.61266851 4278190335
-0.20439842 0.15025946 0.6110903 4278190335
-0.20242505 0.14883338 0.60957706 4278190335
-0.2005309 0.14746448 0.60812449 4278190335
-0.19871137 0.14614955 0.60672915 4278190335
-0.19696234 0.14488558 0.60538805 4278190335
-0.19527967 0.14366958 0.60409772 4278190335
-0.19365989 0.14249904 0.60285568 4278190335
-0.19209938 0.1413714 0.60165918 4278190335
-0.19066375 0.14034672 0.60058451 4278190335
-0.18984483 0.13987491 0.60020232 4278190335
-0.18927185 0.13962403 0.600097 4278190335
-0.18880135 0.13946511 0.60010701 4278190335
-0.18839917 0.13936786 0.60019457 4278190335
-0.18804857 0.13931763 0.60034168 4278190335
-0.18774156 0.1393076 0.60053992 4278190335
-0.18747489 0.13933532 0.60078681 4278190335
-0.18725623 0.13940854 0.60109258 4278190335
-0.1870596 0.1395033 0.60142672 4278190335
-0.18686591 0.1396018 0.60176647 4278190335
-0.18667169 0.13970074 0.60210747 4278190335
-0.18647674 0.13979992 0.60244948 4278190335
-0.18628123 0.13989954 0.6027928 4278190335
-0.18608497 0.13999939 0.60313714 4278190335
-0.18588814 0.14009967 0.60348272 4278190335
-0.18569063 0.14020032 0.60382962 4278190335
-0.18549237 0.14030118 0.60417747 4278190335
-0.18529353 0.1404025 0.60452664 4278190335
-0.18509388 0.14050403 0.60487682 4278190335
-0.18489367 0.14060606 0.60522842 4278190335
-0.18469268 0.1407083 0.60558105 4278190335
-0.18449111 0.14081101 0.60593498 4278190335
-0.18428883 0.14091407 0.60629022 4278190335
-0.18408576 0.14101738 0.60664642 4278190335
-0.1838821 0.14112115 0.60700405 4278190335
-0.18367764 0.14122516 0.60736275 4278190335
-0.18347257 0.14132965 0.60772288 4278190335
-0.18326679 0.14143451 0.60808426 4278190335
-0.18306017 0.14153959 0.60844672 4278190335
-0.18285297 0.14164518 0.60881054 4278190335
-0.18264493 0.14175101 0.6091755 4278190335
-0.18243627 0.14185733 0.60954195 4278190335
-0.18222676 0.14196388 0.60990942 4278190335
-0.18201666 0.14207095 0.61027843 4278190335
-0.18180582 0.1421784 0.61064869 4278190335
-0.18159412 0.14228608 0.61102009 4278190335
-0.18138178 0.14239427 0.61139297 4278190335
-0.18116857 0.14250271 0.61176693 4278190335
-0.18095474 0.14261167 0.61214244 4278190335
-0.18074016 0.14272101 0.61251926 4278190335
-0.18052469 0.14283061 0.61289728 4278190335
-0.18030857 0.14294074 0.61327678 4278190335
-0.18009157 0.14305112 0.61365747 4278190335
-0.17987394 0.14316203 0.61403966 4278190335
-0.1796554 0.1432732 0.61442304 4278190335
-0.17943618 0.14338489 0.61480796 4278190335
-0.17921618 0.14349699 0.61519432 4278190335
-0.17899528 0.14360934 0.61558187 4278190335
-0.17877372 0.14372225 0.61597091 4278190335
-0.17855124 0.14383543 0.61636126 4278190335
-0.17832804 0.14394914 0.6167531 4278190335
-0.17810407 0.14406328 0.61714649 4278190335
-0.17787918 0.14417768 0.61754096 4278190335
-0.17765355 0.14429262 0.61793715 4278190335
-0.17742701 0.14440785 0.61833453 4278190335
-0.17719978 0.14452365 0.61873364 4278190335
-0.1769716 0.14463973 0.61913395 4278190335
-0.17674267 0.14475636 0.61953592 4278190335
-0.17651293 0.14487343 0.61993933 4278190335
-0.17628223 0.14499077 0.62034404 4278190335
-0.1760508 0.14510871 0.62075049 4278190335
-0.17581853 0.14522706 0.62115836 4278190335
-0.17558527 0.14534572 0.62156761 4278190335
-0.17535126 0.14546494 0.62197852 4278190335
-0.1751164 0.14558463 0.62239093 4278190335
-0.17488056 0.1457046 0.62280464 4278190335
-0.17464393 0.14582515 0.62322021 4278190335
-0.17441384 0.14595591 0.62365192 4278190335
-0.17422976 0.14614956 0.6241796 4278190335
-0.17415969 0.14649832 0.62494361 4278190335
-0.20467365 0.15098397 0.61135888 4278190335
-0.20268559 0.1495364 0.60983312 4278190335
-0.20077798 0.14814743 0.60836923 4278190335
-0.19894579 0.14681335 0.60696304 4278190335
-0.19718479 0.14553115 0.60561168 4278190335
-0.19549076 0.14429766 0.60431159 4278190335
-0.19386058 0.14311077 0.60306066 4278190335
-0.19229002 0.14196728 0.60185552 4278190335
-0.19082186 0.14090683 0.60074615 4278190335
-0.1899652 0.14039807 0.60032248 4278190335
-0.18938306 0.14013782 0.6002084 4278190335
-0.18890615 0.13997263 0.60021245 4278190335
-0.1884989 0.13987079 0.60029578 4278190335
-0.18814421 0.13981713 0.60043949 4278190335
-0.18783362 0.13980444 0.60063505 4278190335
-0.18756475 0.13983098 0.60088068 4278190335
-0.18734463 0.13990408 0.60118622 4278190335
-0.18714628 0.13999861 0.60151976 4278190335
-0.18695237 0.14009832 0.60186064 4278190335
-0.1867577 0.14019825 0.60220253 4278190335
-0.18656248 0.14029863 0.60254586 4278190335
-0.18636662 0.14039935 0.60289013 4278190335
-0.18616997 0.14050031 0.6032356 4278190335
-0.18597274 0.14060171 0.60358226 4278190335
-0.18577477 0.14070335 0.60393 4278190335
-0.18557625 0.14080545 0.60427916 4278190335
-0.1853769 0.14090779 0.60462928 4278190335
-0.18517698 0.14101058 0.60498071 4278190335
-0.18497637 0.14111371 0.60533333 4278190335
-0.18477498 0.14121711 0.60568714 4278190335
-0.18457305 0.14132097 0.60604227 4278190335
-0.18437026 0.14142506 0.60639834 4278190335
-0.18416689 0.14152965 0.60675597 4278190335
-0.18396284 0.14163458 0.60711473 4278190335
-0.18375793 0.14173976 0.60747457 4278190335
-0.18355246 0.14184541 0.60783583 4278190335
-0.18334612 0.14195131 0.60819817 4278190335
-0.18313925 0.14205772 0.60856199 4278190335
-0.18293151 0.14216438 0.60892689 4278190335
-0.18272313 0.1422715 0.60929322 4278190335
-0.18251404 0.14237902 0.6096608 4278190335
-0.18230414 0.1424868 0.61002958 4278190335
-0.18209359 0.14259507 0.61039972 4278190335
-0.18188219 0.14270358 0.610771 4278190335
-0.18167016 0.14281261 0.61114383 4278190335
-0.18145725 0.14292191 0.61151773 4278190335
-0.18124372 0.1430317 0.61189318 4278190335
-0.18102944 0.1431419 0.61226988 4278190335
-0.18081428 0.14325236 0.61264783 4278190335
-0.18059848 0.14336333 0.61302722 4278190335
-0.18038175 0.14347455 0.61340785 4278190335
-0.18016443 0.14358632 0.61378998 4278190335
-0.17994632 0.1436985 0.61417347 4278190335
-0.17972729 0.14381093 0.61455816 4278190335
-0.1795076 0.14392389 0.61494446 4278190335
-0.17928699 0.14403713 0.61533189 4278190335
-0.17906573 0.14415093 0.61572087 4278190335
-0.17884356 0.144265 0.61611116 4278190335
-0.1786207 0.14437959 0.616503 4278190335
-0.17839701 0.14449461 0.61689627 4278190335
-0.17817241 0.1446099 0.61729074 4278190335
-0.17794712 0.14472574 0.61768687 4278190335
-0.17772089 0.14484189 0.61808419 4278190335
-0.17749393 0.14495857 0.61848319 4278190335
-0.1772662 0.14507571 0.61888361 4278190335
-0.17703749 0.14519313 0.61928535 4278190335
-0.17680803 0.1453111 0.61968875 4278190335
-0.17657766 0.14542937 0.62009341 4278190335
-0.17634653 0.14554822 0.62049973 4278190335
-0.17611456 0.14566751 0.62090766 4278190335
-0.17588161 0.14578709 0.62131679 4278190335
-0.17564791 0.14590725 0.62172765 4278190335
-0.17541337 0.14602788 0.62214005 4278190335
-0.17517783 0.14614879 0.62255371 4278190335
-0.17494152 0.1462703 0.62296915 4278190335
-0.17470433 0.14639226 0.6233862 4278190335
-0.1744768 0.14652868 0.62382567 4278190335
-0.17430021 0.1467351 0.62437123 4278190335
-0.17426284 0.14713192 0.62520456 4278190335
-0.20495139 0.15171514 0.61162996 4278190335
-0.20294864 0.15024592 0.61009169 4278190335
-0.2010273 0.14883645 0.60861611 4278190335
-0.19918218 0.14748287 0.60719895 4278190335
-0.19740899 0.14618206 0.60583699 4278190335
-0.19570376 0.14493112 0.60452735 4278190335
-0.19406277 0.14372738 0.60326713 4278190335
-0.19248237 0.14256808 0.60205352 4278190335
-0.19098108 0.14147094 0.60090894 4278190335
-0.19008647 0.14092453 0.6004436 4278190335
-0.18949477 0.14065444 0.60032022 4278190335
-0.18901151 0.14048301 0.60031855 4278190335
-0.18859911 0.1403764 0.60039735 4278190335
-0.18824035 0.14031932 0.60053784 4278190335
-0.18792608 0.14030381 0.60073054 4278190335
-0.18765661 0.14033075 0.60097694 4278190335
-0.18743348 0.14040221 0.60128033 4278190335
-0.18723354 0.14049661 0.6016134 4278190335
-0.18703915 0.14059731 0.60195518 4278190335
-0.18684424 0.14069846 0.60229832 4278190335
-0.18664867 0.14079997 0.60264266 4278190335
-0.18645228 0.14090167 0.60298789 4278190335
-0.18625538 0.14100386 0.60333455 4278190335
-0.1860577 0.14110628 0.60368216 4278190335
-0.18585946 0.14120916 0.60403121 4278190335
-0.18566051 0.14131239 0.60438132 4278190335
-0.18546078 0.14141585 0.60473257 4278190335
-0.1852605 0.1415198 0.60508513 4278190335
-0.1850594 0.14162397 0.60543877 4278190335
-0.18485776 0.14172862 0.60579377 4278190335
-0.18465525 0.14183353 0.60614991 4278190335
-0.18445219 0.14193891 0.6065073 4278190335
-0.18424843 0.14204465 0.606866 4278190335
-0.18404385 0.14215064 0.60722578 4278190335
-0.18383867 0.14225711 0.60758698 4278190335
-0.18363267 0.14236383 0.60794926 4278190335
-0.18342607 0.14247105 0.60831296 4278190335
-0.18321873 0.14257865 0.60867786 4278190335
-0.18301056 0.14268649 0.60904396 4278190335
-0.18280177 0.14279482 0.60941148 4278190335
-0.18259215 0.14290342 0.60978013 4278190335
-0.18238193 0.14301254 0.61015022 4278190335
-0.18217082 0.1431219 0.61052144 4278190335
-0.18195908 0.14323176 0.61089414 4278190335
-0.18174663 0.14334203 0.61126816 4278190335
-0.18153328 0.14345255 0.61164337 4278190335
-0.18131928 0.14356358 0.61202002 4278190335
-0.18110444 0.14367491 0.61239791 4278190335
-0.18088894 0.14378674 0.61277723 4278190335
-0.18067265 0.14389896 0.61315799 4278190335
-0.18045549 0.14401147 0.61353981 4278190335
-0.18023768 0.14412449 0.61392325 4278190335
-0.18001898 0.14423782 0.61430788 4278190335
-0.1797996 0.14435166 0.61469406 4278190335
-0.17957932 0.14446577 0.61508143 4278190335
-0.17935832 0.14458044 0.61547041 4278190335
-0.17913659 0.14469552 0.61586076 4278190335
-0.17891392 0.14481089 0.61625236 4278190335
-0.17869054 0.1449268 0.61664557 4278190335
-0.17846625 0.14504299 0.61703998 4278190335
-0.17824127 0.14515974 0.61743605 4278190335
-0.17801535 0.14527678 0.61783332 4278190335
-0.17778875 0.1453944 0.61823225 4278190335
-0.17756124 0.1455124 0.61863267 4278190335
-0.17733286 0.14563075 0.61903429 4278190335
-0.17710373 0.14574964 0.61943763 4278190335
-0.17687367 0.14586885 0.61984229 4278190335
-0.17664285 0.14598861 0.62024856 4278190335
-0.17641117 0.14610884 0.62065637 4278190335
-0.17617857 0.14622937 0.6210655 4278190335
-0.17594516 0.14635046 0.62147629 4278190335
-0.17571093 0.14647202 0.62188864 4278190335
-0.17547569 0.14659387 0.62230229 4278190335
-0.17523973 0.14671634 0.62271768 4278190335
-0.17500287 0.14683926 0.62313461 4278190335
-0.17476501 0.14696249 0.62355292 4278190335
-0.17454028 0.14710498 0.62400073 4278190335
-0.17437105 0.14732417 0.62456381 4278190335
-0.17436683 0.14777048 0.62546772 4278190335
-0.20523173 0.15245308 0.61190349 4278190335
-0.20321409 0.15096188 0.61035264 4278190335
-0.20127879 0.14953156 0.60886514 4278190335
-0.19942065 0.14815821 0.60743684 4278190335
-0.19763522 0.14683864 0.60606444 4278190335
-0.19591855 0.14556988 0.60474503 4278190335
-0.19426665 0.14434902 0.60347533 4278190335
-0.19267611 0.14317359 0.60225296 4278190335
-0.19114332 0.1420408 0.60107493 4278190335
-0.19020829 0.14145404 0.60056531 4278190335
-0.18960725 0.14117421 0.60043281 4278190335
-0.18911736 0.14099616 0.60042512 4278190335
-0.18869996 0.14088489 0.60049963 4278190335
-0.18833703 0.14082423 0.60063672 4278190335
-0.18801904 0.14080584 0.6008265 4278190335
-0.18774901 0.14083318 0.6010738 4278190335
-0.18752283 0.14090298 0.60137498 4278190335
-0.18732126 0.14099723 0.60170758 4278190335
-0.18712652 0.14109904 0.60205042 4278190335
-0.18693122 0.14120129 0.60239458 4278190335
-0.18673515 0.14130379 0.60273981 4278190335
-0.18653855 0.14140676 0.60308635 4278190335
-0.18634129 0.14151008 0.60343403 4278190335
-0.18614319 0.14161362 0.60378277 4278190335
-0.18594457 0.14171764 0.60413283 4278190335
-0.18574515 0.14182189 0.60448396 4278190335
-0.18554516 0.14192663 0.60483646 4278190335
-0.18534437 0.14203161 0.60518998 4278190335
-0.18514298 0.14213707 0.60554492 4278190335
-0.1849409 0.14224288 0.605901 4278190335
-0.18473805 0.14234895 0.60625827 4278190335
-0.18453459 0.14245549 0.60661685 4278190335
-0.1843303 0.14256229 0.60697651 4278190335
-0.18412542 0.14266959 0.60733759 4278190335
-0.18391974 0.14277713 0.60769981 4278190335
-0.18371341 0.14288516 0.60806346 4278190335
-0.1835064 0.14299358 0.6084283 4278190335
-0.18329856 0.14310226 0.60879433 4278190335
-0.18309006 0.14321142 0.60916173 4278190335
-0.18288074 0.14332086 0.60953027 4278190335
-0.18267077 0.1434308 0.6099003 4278190335
-0.18246011 0.14354113 0.61027157 4278190335
-0.18224858 0.14365172 0.61064404 4278190335
-0.1820364 0.14376283 0.611018 4278190335
-0.18182337 0.14387421 0.61139309 4278190335
-0.18160971 0.14398612 0.61176968 4278190335
-0.18139513 0.14409827 0.61214745 4278190335
-0.18117996 0.14421098 0.61252677 4278190335
-0.18096399 0.14432406 0.61290741 4278190335
-0.18074714 0.14443743 0.61328918 4278190335
-0.18052961 0.14455134 0.61367255 4278190335
-0.18031122 0.14466552 0.61405706 4278190335
-0.18009216 0.14478025 0.61444318 4278190335
-0.17987229 0.14489537 0.61483067 4278190335
-0.17965154 0.14501081 0.61521941 4278190335
-0.17943007 0.14512677 0.61560971 4278190335
-0.17920771 0.14524303 0.61600125 4278190335
-0.17898466 0.14535984 0.6163944 4278190335
-0.17876066 0.14547692 0.61678874 4278190335
-0.178536 0.14559458 0.6171847 4278190335
-0.1783105 0.14571267 0.61758208 4278190335
-0.17808408 0.14583105 0.61798084 4278190335
-0.17785692 0.14595 0.61838114 4278190335
-0.17762883 0.14606926 0.61878276 4278190335
-0.17740002 0.14618908 0.61918604 4278190335
-0.17717037 0.14630935 0.61959076 4278190335
-0.17693976 0.14642991 0.61999679 4278190335
-0.17670843 0.14655107 0.6204046 4278190335
-0.17647611 0.14667252 0.62081361 4278190335
-0.17624304 0.14679457 0.6212244 4278190335
-0.1760091 0.14691707 0.62163669 4278190335
-0.1757742 0.14703989 0.62205029 4278190335
-0.17553851 0.1471633 0.62246567 4278190335
-0.17530198 0.14728718 0.6228826 4278190335
-0.17506441 0.14741136 0.62330079 4278190335
-0.17482607 0.14753616 0.62372088 4278190335
-0.17460401 0.14768456 0.62417662 4278190335
-0.17444235 0.14791708 0.62475789 4278190335
-0.17447156 0.14841378 0.62573266 4278190335
-0.20348191 0.15168431 0.61061585 4278190335
-0.20153236 0.15023269 0.6091162 4278190335
-0.1996612 0.14883944 0.6076768 4278190335
-0.19786341 0.14750084 0.60629386 4278190335
-0.19613495 0.14621384 0.60496426 4278190335
-0.19447216 0.1449758 0.60368526 4278190335
-0.19287141 0.14378397 0.60245407 4278190335
-0.19132897 0.1426356 0.6012677 4278190335
-0.19033487 0.14199056 0.60069239 4278190335
-0.18972029 0.1416969 0.600546 4278190335
-0.18922395 0.14151235 0.60053241 4278190335
-0.18880138 0.14139621 0.60060251 4278190335
-0.1884342 0.14133188 0.60073614 4278190335
-0.18811262 0.14131066 0.60092318 4278190335
-0.18784177 0.1413382 0.60117102 4278190335
-0.18761262 0.14140637 0.60147005 4278190335
-0.18740931 0.14150035 0.60180199 4278190335
-0.18721434 0.1416034 0.60214615 4278190335
-0.18701853 0.14170666 0.6024912 4278190335
-0.18682224 0.1418104 0.60283768 4278190335
-0.18662529 0.14191452 0.60318524 4278190335
-0.1864275 0.14201885 0.60353386 4278190335
-0.18622917 0.14212365 0.60388386 4278190335
-0.18603003 0.14222869 0.60423487 4278190335
-0.18583035 0.14233424 0.60458732 4278190335
-0.18562998 0.14244013 0.60494089 4278190335
-0.18542881 0.14254627 0.60529554 4278190335
-0.18522701 0.14265288 0.60565162 4278190335
-0.18502443 0.14275976 0.60600871 4278190335
-0.18482129 0.14286712 0.60636723 4278190335
-0.1846173 0.14297473 0.60672677 4278190335
-0.18441273 0.14308284 0.60708779 4278190335
-0.18420748 0.14319134 0.60745007 4278190335
-0.18400134 0.14330007 0.60781342 4278190335
-0.18379463 0.14340933 0.6081782 4278190335
-0.18358707 0.14351882 0.60854411 4278190335
-0.18337889 0.14362884 0.60891145 4278190335
-0.18316998 0.14373922 0.60928011 4278190335
-0.18296021 0.14384988 0.60964984 4278190335
-0.18274985 0.14396106 0.61002111 4278190335
-0.18253864 0.1440725 0.61039352 4278190335
-0.18232676 0.14418446 0.61076736 4278190335
-0.18211406 0.14429669 0.6111424 4278190335
-0.18190069 0.14440945 0.61151886 4278190335
-0.18168652 0.14452259 0.61189675 4278190335
-0.18147154 0.14463603 0.61227578 4278190335
-0.18125589 0.14475 0.61265635 4278190335
-0.18103935 0.14486425 0.61303806 4278190335
-0.18082215 0.14497901 0.61342132 4278190335
-0.18060404 0.14509408 0.61380583 4278190335
-0.18038529 0.14520968 0.61419189 4278190335
-0.18016577 0.14532572 0.61457932 4278190335
-0.17994529 0.14544202 0.61496794 4278190335
-0.17972414 0.14555888 0.61535817 4278190335
-0.17950208 0.14567603 0.6157496 4278190335
-0.17927934 0.14579374 0.61614263 4278190335
-0.1790558 0.14591189 0.61653715 4278190335
-0.17883131 0.14603031 0.61693287 4278190335
-0.17860614 0.14614931 0.61733025 4278190335
-0.17838004 0.14626861 0.61772883 4278190335
-0.17815319 0.14638847 0.61812913 4278190335
-0.17792542 0.14650865 0.61853075 4278190335
-0.1776969 0.14662938 0.61893392 4278190335
-0.17746757 0.14675058 0.61933863 4278190335
-0.17723727 0.14687209 0.6197446 4278190335
-0.17700623 0.14699417 0.62015229 4278190335
-0.17677423 0.14711659 0.6205613 4278190335
-0.17654149 0.14723958 0.62097204 4278190335
-0.17630786 0.14736302 0.62138426 4278190335
-0.1760733 0.14748681 0.6217978 4278190335
-0.17583792 0.14761117 0.62221313 4278190335
-0.17560168 0.14773601 0.62263 4278190335
-0.17536446 0.14786117 0.62304819 4278190335
-0.17512646 0.14798693 0.62346816 4278190335
-0.17488757 0.14811321 0.6238898 4278190335
-0.17466812 0.1482676 0.62435353 4278190335
-0.17452475 0.1485282 0.62497443 4278190335
-0.1746196 0.1491206 0.62608594 4278190335
-0.20375219 0.15241335 0.61088157 4278190335
-0.20178838 0.15094027 0.6093697 4278190335
-0.19990385 0.14952667 0.60791892 4278190335
-0.19809356 0.14816874 0.60652524 4278190335
-0.19635336 0.14686339 0.60518551 4278190335
-0.19467957 0.1456079 0.60389709 4278190335
-0.1930683 0.14439933 0.60265672 4278190335
-0.19151612 0.14323512 0.60146201 4278190335
-0.19046961 0.14253734 0.60082877 4278190335
-0.18983409 0.14222273 0.60065991 4278190335
-0.1893311 0.14203145 0.60064036 4278190335
-0.18890323 0.14191025 0.6007058 4278190335
-0.18853183 0.14184219 0.60083598 4278190335
-0.1882083 0.14181976 0.60102224 4278190335
-0.18793517 0.14184605 0.60126889 4278190335
-0.18770278 0.14191231 0.60156548 4278190335
-0.18749791 0.14200622 0.60189712 4278190335
-0.18730259 0.14211039 0.60224229 4278190335
-0.18710645 0.1422148 0.60258847 4278190335
-0.18690979 0.14231969 0.60293597 4278190335
-0.18671231 0.14242482 0.60328454 4278190335
-0.1865143 0.14253043 0.60363442 4278190335
-0.18631545 0.14263627 0.60398531 4278190335
-0.18611608 0.1427426 0.60433763 4278190335
-0.18591599 0.1428493 0.60469115 4278190335
-0.18571512 0.14295624 0.60504568 4278190335
-0.18551368 0.14306368 0.60540164 4278190335
-0.18531138 0.14317134 0.60575867 4278190335
-0.18510854 0.14327954 0.60611713 4278190335
-0.18490498 0.14338809 0.60647678 4278190335
-0.18470058 0.1434969 0.60683751 4278190335
-0.18449563 0.14360622 0.60719967 4278190335
-0.18428978 0.14371577 0.6075629 4278190335
-0.18408337 0.14382584 0.60792768 4278190335
-0.18387614 0.14393619 0.60829347 4278190335
-0.1836683 0.14404705 0.6086607 4278190335
-0.18345967 0.14415826 0.60902929 4278190335
-0.18325022 0.14426976 0.60939896 4278190335
-0.18304016 0.14438179 0.60977006 4278190335
-0.18282923 0.14449409 0.61014241 4278190335
-0.18261766 0.1446069 0.61051619 4278190335
-0.18240535 0.14472011 0.61089128 4278190335
-0.18219222 0.14483361 0.61126757 4278190335
-0.18197837 0.14494762 0.61164534 4278190335
-0.18176369 0.14506193 0.61202431 4278190335
-0.18154839 0.14517677 0.61240482 4278190335
-0.18133213 0.14529188 0.61278641 4278190335
-0.18111525 0.14540754 0.61316967 4278190335
-0.18089758 0.14552362 0.61355424 4278190335
-0.18067901 0.14563997 0.61394 4278190335
-0.18045975 0.14575689 0.61432737 4278190335
-0.18023962 0.14587408 0.61471593 4278190335
-0.1800188 0.14599185 0.61510611 4278190335
-0.17979717 0.14611004 0.61549771 4278190335
-0.17957461 0.14622851 0.6158905 4278190335
-0.17935139 0.14634755 0.61628485 4278190335
-0.17912722 0.1464669 0.61668056 4278190335
-0.17890234 0.14658681 0.61707783 4278190335
-0.17867658 0.14670703 0.61747646 4278190335
-0.17845003 0.14682782 0.61787665 4278190335
-0.17822269 0.14694905 0.61827832 4278190335
-0.1779944 0.14707059 0.61868131 4278190335
-0.17776537 0.14719273 0.61908591 4278190335
-0.17753541 0.14731517 0.61949188 4278190335
-0.17730467 0.1474382 0.61989951 4278190335
-0.17707297 0.14756154 0.6203084 4278190335
-0.17684057 0.1476855 0.62071908 4278190335
-0.17660727 0.14780991 0.6211313 4278190335
-0.17637299 0.14793462 0.62154484 4278190335
-0.17613794 0.14805995 0.62196004 4278190335
-0.17590205 0.14818577 0.62237692 4278190335
-0.17566511 0.14831188 0.6227951 4278190335
-0.17542744 0.14843863 0.62321502 4278190335
-0.17518884 0.14856587 0.6236366 4278190335
-0.17494924 0.14869341 0.62405944 4278190335
-0.17473263 0.14885411 0.62453151 4278190335
-0.17460933 0.14914572 0.62519574 4278190335
-0.17478082 0.14985043 0.62646645 4278190335
-0.20204671 0.1516542 0.60962546 4278190335
-0.20014845 0.15021977 0.60816294 4278190335
-0.19832568 0.14884238 0.60675859 4278190335
-0.1965736 0.14751841 0.60540867 4278190335
-0.1948885 0.14624508 0.60411048 4278190335
-0.19326694 0.14501981 0.60286129 4278190335
-0.19170476 0.14383942 0.60165781 4278190335
-0.19060516 0.14308763 0.60096592 4278190335
-0.18994847 0.14275157 0.60077441 4278190335
-0.18943889 0.14255351 0.60074884 4278190335
-0.18900581 0.14242728 0.60080981 4278190335
-0.18863009 0.1423554 0.60093653 4278190335
-0.18830563 0.14233273 0.60112327 4278190335
-0.18802905 0.14235662 0.60136729 4278190335
-0.18779352 0.14242104 0.60166168 4278190335
-0.18758704 0.14251477 0.60199279 4278190335
-0.18739121 0.14261997 0.60233885 4278190335
-0.18719484 0.14272565 0.60268629 4278190335
-0.18699768 0.14283156 0.60303473 4278190335
-0.18679993 0.14293796 0.60338449 4278190335
-0.18660153 0.14304473 0.60373545 4278190335
-0.18640237 0.14315175 0.60408753 4278190335
-0.18620259 0.14325924 0.60444093 4278190335
-0.18600199 0.14336698 0.60479534 4278190335
-0.18580085 0.14347523 0.6051513 4278190335
-0.18559898 0.14358385 0.60550833 4278190335
-0.18539633 0.14369272 0.60586649 4278190335
-0.18519306 0.14380209 0.60622609 4278190335
-0.18498898 0.14391173 0.60658669 4278190335
-0.18478432 0.14402187 0.60694879 4278190335
-0.18457881 0.14413227 0.60731196 4278190335
-0.18437272 0.14424318 0.60767663 4278190335
-0.18416588 0.14435448 0.60804248 4278190335
-0.18395819 0.14446604 0.60840952 4278190335
-0.18374991 0.14457813 0.608778 4278190335
-0.18354078 0.14469047 0.60914755 4278190335
-0.18333104 0.14480335 0.60951865 4278190335
-0.18312041 0.14491649 0.60989082 4278190335
-0.18290916 0.14503016 0.61026454 4278190335
-0.18269719 0.14514424 0.61063957 4278190335
-0.18248431 0.14525859 0.61101574 4278190335
-0.18227082 0.14537349 0.61139345 4278190335
-0.18205643 0.14548865 0.6117723 4278190335
-0.18184139 0.14560436 0.6121527 4278190335
-0.1816256 0.1457205 0.61253452 4278190335
-0.1814089 0.1458369 0.61291742 4278190335
-0.18119153 0.14595386 0.61330193 4278190335
-0.18097329 0.14607111 0.61368763 4278190335
-0.18075438 0.14618891 0.61407495 4278190335
-0.18053456 0.14630702 0.61446345 4278190335
-0.18031403 0.14642566 0.6148535 4278190335
-0.18009272 0.14654477 0.61524504 4278190335
-0.17987049 0.14666414 0.61563778 4278190335
-0.17964758 0.1467841 0.61603212 4278190335
-0.1794237 0.14690435 0.61642778 4278190335
-0.17919916 0.1470252 0.61682498 4278190335
-0.17897381 0.14714646 0.61722368 4278190335
-0.17874746 0.14726804 0.61762363 4278190335
-0.17852047 0.14739023 0.6180253 4278190335
-0.17829248 0.14751269 0.61842811 4278190335
-0.17806377 0.14763576 0.61883271 4278190335
-0.17783411 0.14775914 0.61923862 4278190335
-0.17760369 0.14788312 0.61964619 4278190335
-0.17737244 0.14800754 0.62005532 4278190335
-0.17714024 0.14813231 0.6204657 4278190335
-0.17690726 0.14825767 0.62087786 4278190335
-0.17667334 0.14838336 0.62129134 4278190335
-0.1764386 0.14850967 0.62170655 4278190335
-0.176203 0.14863645 0.6221233 4278190335
-0.1759664 0.14876354 0.62254143 4278190335
-0.17572904 0.14889127 0.62296134 4278190335
-0.17549077 0.14901948 0.62338281 4278190335
-0.1752515 0.14914802 0.62380564 4278190335
-0.17501144 0.1492772 0.62423038 4278190335
-0.17480256 0.14945111 0.62472057 4278190335
-0.17469449 0.14976744 0.62541854 4278190335
-0.20230736 0.15237457 0.60988355 4278190335
-0.20039542 0.15091915 0.60840935 4278190335
-0.19855984 0.14952189 0.60699403 4278190335
-0.19679572 0.14817901 0.60563374 4278190335
-0.19509923 0.1468876 0.60432565 4278190335
-0.19346702 0.14564523 0.60306728 4278190335
-0.19189502 0.1444487 0.6018554 4278190335
-0.19074154 0.14364138 0.6011039 4278190335
-0.19006361 0.14328362 0.60088968 4278190335
-0.1895472 0.14307846 0.60085785 4278190335
-0.1891088 0.14294708 0.60091424 4278190335
-0.18872884 0.14287139 0.6010375 4278190335
-0.1884035 0.14284849 0.60122478 4278190335
-0.18812332 0.14286982 0.60146606 4278190335
-0.18788478 0.14293249 0.6017583 4278190335
-0.18767649 0.14302588 0.60208881 4278190335
-0.1874804 0.14313234 0.60243607 4278190335
-0.18728369 0.14323919 0.60278463 4278190335
-0.18708615 0.14334626 0.60313416 4278190335
-0.18688805 0.14345384 0.60348499 4278190335
-0.18668914 0.14356165 0.60383695 4278190335
-0.1864897 0.14366996 0.60419023 4278190335
-0.18628941 0.14377852 0.60454464 4278190335
-0.18608856 0.14388758 0.60490036 4278190335
-0.18588704 0.14399703 0.60525739 4278190335
-0.18568467 0.1441067 0.60561544 4278190335
-0.1854817 0.14421691 0.60597491 4278190335
-0.18527792 0.14432736 0.60633552 4278190335
-0.18507358 0.14443834 0.60669744 4278190335
-0.18486851 0.1445497 0.60706073 4278190335
-0.18466258 0.14466131 0.60742509 4278190335
-0.18445607 0.14477345 0.60779089 4278190335
-0.1842487 0.14488585 0.60815775 4278190335
-0.18404073 0.14499879 0.60852617 4278190335
-0.18383192 0.14511198 0.60889566 4278190335
-0.18362248 0.14522572 0.60926664 4278190335
-0.18341225 0.14533985 0.60963899 4278190335
-0.18320124 0.14545426 0.61001241 4278190335
-0.18298957 0.14556919 0.61038733 4278190335
-0.182777 0.14568442 0.61076343 4278190335
-0.18256381 0.14580016 0.61114109 4278190335
-0.18234986 0.14591636 0.61152005 4278190335
-0.182135 0.1460328 0.61190021 4278190335
-0.18191953 0.14614981 0.61228192 4278190335
-0.18170315 0.1462671 0.6126647 4278190335
-0.1814861 0.14638495 0.61304915 4278190335
-0.18126817 0.14650311 0.61343479 4278190335
-0.18104957 0.14662179 0.61382204 4278190335
-0.18083018 0.14674093 0.61421061 4278190335
-0.18060987 0.14686036 0.61460048 4278190335
-0.18038887 0.14698036 0.6149919 4278190335
-0.18016696 0.14710064 0.61538458 4278190335
-0.17994434 0.14722152 0.61577886 4278190335
-0.17972082 0.14734268 0.6161744 4278190335
-0.1794966 0.14746445 0.61657161 4278190335
-0.17927152 0.14758664 0.61697018 4278190335
-0.17904553 0.14770915 0.61737013 4278190335
-0.17881882 0.14783226 0.61777169 4278190335
-0.17859116 0.14795567 0.61817449 4278190335
-0.17836277 0.14807968 0.61857903 4278190335
-0.17813356 0.14820415 0.61898506 4278190335
-0.17790337 0.14832893 0.6193924 4278190335
-0.17767243 0.14845432 0.6198014 4278190335
-0.17744054 0.14858004 0.62021178 4278190335
-0.17720786 0.14870636 0.62062383 4278190335
-0.17697424 0.14883302 0.62103724 4278190335
-0.17673984 0.14896029 0.62145245 4278190335
-0.17650455 0.14908804 0.62186921 4278190335
-0.17626829 0.14921612 0.62228727 4278190335
-0.17603128 0.14934483 0.62270713 4278190335
-0.17579332 0.14947402 0.62312853 4278190335
-0.17555436 0.14960355 0.62355137 4278190335
-0.17531464 0.14973372 0.62397599 4278190335
-0.17507535 0.14986624 0.62440491 4278190335
-0.17487578 0.1500558 0.62491661 4278190335
-0.17478034 0.15039359 0.62564313 4278190335
-0.20257038 0.15310147 0.61014402 4278190335
-0.20064455 0.15162475 0.6086579 4278190335
-0.19879583 0.15020713 0.60723126 4278190335
-0.19701976 0.14884527 0.60586077 4278190335
-0.19531186 0.14753562 0.60454273 4278190335
-0.19366878 0.1462758 0.603275 4278190335
-0.19208671 0.14506276 0.60205436 4278190335
-0.19087875 0.14419875 0.60124266 4278190335
-0.19018218 0.14382148 0.60100883 4278190335
-0.1896562 0.14360651 0.60096765 4278190335
-0.18921249 0.14346988 0.60101938 4278190335
-0.18883011 0.14339215 0.60114145 4278190335
-0.18850192 0.14336711 0.60132694 4278190335
-0.18821822 0.14338592 0.60156554 4278190335
-0.18797646 0.14344665 0.60185546 4278190335
-0.18776655 0.14353982 0.60218543 4278190335
-0.18757011 0.14364746 0.60253382 4278190335
-0.18737285 0.14375532 0.60288322 4278190335
-0.1871751 0.14386371 0.60323405 4278190335
-0.18697651 0.14397232 0.6035859 4278190335
-0.18677731 0.14408144 0.60393906 4278190335
-0.18657748 0.14419094 0.60429353 4278190335
-0.18637685 0.14430071 0.60464907 4278190335
-0.18617561 0.14441097 0.60500592 4278190335
-0.18597354 0.14452147 0.60536391 4278190335
-0.18577091 0.1446325 0.60572326 4278190335
-0.18556744 0.14474379 0.60608375 4278190335
-0.1853634 0.14485559 0.60644567 4278190335
-0.18515863 0.14496778 0.60680878 4278190335
-0.18495299 0.14508024 0.60717303 4278190335
-0.18474682 0.14519323 0.60753876 4278190335
-0.18453975 0.14530648 0.60790563 4278190335
-0.18433209 0.14542025 0.60827386 4278190335
-0.18412369 0.14553444 0.60864353 4278190335
-0.18391448 0.14564891 0.60901421 4278190335
-0.1837046 0.1457639 0.60938644 4278190335
-0.18349385 0.14587915 0.60975981 4278190335
-0.18328249 0.14599498 0.61013466 4278190335
-0.18307024 0.14611106 0.61051071 4278190335
-0.18285735 0.14622767 0.61088818 4278190335
-0.18264376 0.14634475 0.61126709 4278190335
-0.18242918 0.14646207 0.61164713 4278190335
-0.18221404 0.14657998 0.61202878 4278190335
-0.18199798 0.14669816 0.61241156 4278190335
-0.18178125 0.14681689 0.61279595 4278190335
-0.18156376 0.14693607 0.61318165 4278190335
-0.18134534 0.14705554 0.6135686 4278190335
-0.18112624 0.14717557 0.61395717 4278190335
-0.18090625 0.14729589 0.61434692 4278190335
-0.18068561 0.14741682 0.61473829 4278190335
-0.18046401 0.14753802 0.6151309 4278190335
-0.1802417 0.14765981 0.61552513 4278190335
-0.18001862 0.14778204 0.61592078 4278190335
-0.17979459 0.14790459 0.61631769 4278190335
-0.17956986 0.14802772 0.61671627 4278190335
-0.17934419 0.14815116 0.61711609 4278190335
-0.17911778 0.1482752 0.61751759 4278190335
-0.17889057 0.1483997 0.61792052 4278190335
-0.17866237 0.14852451 0.61832482 4278190335
-0.17843351 0.14864993 0.61873078 4278190335
-0.17820361 0.14877565 0.619138 4278190335
-0.17797302 0.14890201 0.61954701 4278190335
-0.17774142 0.14902869 0.61995733 4278190335
