# .PCD v0.7 - Point Cloud Data file format
VERSION 0.7
FIELDS x y z rgba
SIZE 4 4 4 4
TYPE F F F U
COUNT 1 1 1 1
WIDTH 1069
HEIGHT 1
VIEWPOINT 0 0 0 1 0 0 0
POINTS 1069
DATA ascii
0.050950002 0.26696241 0.55078101 4278190335
0.051253859 0.26673025 0.55049515 4278190335
0.051556036 0.26649937 0.55021083 4278190335
0.051856548 0.26626974 0.54992807 4278190335
0.052155439 0.26604152 0.54964703 4278190335
0.052452691 0.26581445 0.54936737 4278190335
0.052748278 0.26558855 0.54908919 4278190335
0.053042315 0.26536402 0.54881269 4278190335
0.053334717 0.26514062 0.54853761 4278190335
0.053625539 0.26491842 0.54826397 4278190335
0.053914793 0.26469737 0.54799181 4278190335
0.054202516 0.2644777 0.54772127 4278190335
0.054488674 0.26425904 0.54745197 4278190335
0.054773301 0.26404154 0.54718417 4278190335
0.055056438 0.26382539 0.54691792 4278190335
0.055338033 0.26361021 0.54665297 4278190335
0.055618118 0.2633962 0.54638946 4278190335
0.055896737 0.2631833 0.54612732 4278190335
0.056173906 0.26297167 0.54586667 4278190335
0.056449614 0.26276103 0.54560727 4278190335
0.056723841 0.26255149 0.54534924 4278190335
0.056996644 0.26234305 0.54509258 4278190335
0.057268042 0.2621358 0.54483736 4278190335
0.057538018 0.26192951 0.54458332 4278190335
0.057806563 0.26172435 0.54433066 4278190335
0.058073752 0.26152033 0.54407942 4278190335
0.058339532 0.26131722 0.54382932 4278190335
0.058608476 0.261134 0.54359502 4278190335
0.058885753 0.26099095 0.543392 4278190335
0.059172548 0.26089078 0.54322219 4278190335
0.059469257 0.26083314 0.54308522 4278190335
0.059775736 0.26081532 0.54297876 4278190335
0.060090069 0.26082829 0.54289591 4278190335
0.060413077 0.26087359 0.54283762 4278190335
0.060747307 0.26095948 0.54281014 4278190335
0.061096415 0.26109737 0.54282194 4278190335
0.061462618 0.26129317 0.54287732 4278190335
0.061855227 0.26157761 0.54299939 4278190335
0.062274091 0.26194632 0.54318446 4278190335
0.062699236 0.26232663 0.5433774 4278190335
0.063128412 0.26271036 0.54357207 4278190335
0.063561805 0.26309803 0.54376876 4278190335
0.063999481 0.26348948 0.54396737 4278190335
0.064441368 0.2638846 0.54416776 4278190335
0.064887673 0.26428381 0.54437029 4278190335
0.06533841 0.26468694 0.54457486 4278190335
0.065793574 0.26509398 0.54478133 4278190335
0.066253379 0.26550522 0.54498994 4278190335
0.066717796 0.26592064 0.54520071 4278190335
0.067186862 0.26634005 0.54541349 4278190335
0.067660749 0.2667639 0.54562849 4278190335
0.068139493 0.2671921 0.54584575 4278190335
0.068623088 0.26762453 0.54606509 4278190335
0.06911175 0.26806158 0.54628682 4278190335
0.069605395 0.26850304 0.54651076 4278190335
0.070104271 0.26894924 0.54673713 4278190335
0.070608392 0.26940012 0.5469659 4278190335
0.071117781 0.26985562 0.54719692 4278190335
0.071632594 0.27031609 0.54743057 4278190335
0.072152853 0.27078128 0.54766655 4278190335
0.072678745 0.27125165 0.54790521 4278190335
0.073210239 0.27172691 0.54814625 4278190335
0.07374756 0.27220747 0.54839009 4278190335
0.074290633 0.27269313 0.54863644 4278190335
0.074839763 0.2731843 0.54888558 4278190335
0.075394869 0.27368063 0.54913735 4278190335
0.075956173 0.27418271 0.5493921 4278190335
0.076523654 0.27469015 0.54964954 4278190335
0.077097572 0.27520344 0.54990995 4278190335
0.077677883 0.27572235 0.55017316 4278190335
0.07826481 0.27624735 0.55043948 4278190335
0.078858383 0.2767781 0.55070877 4278190335
0.079458721 0.2773149 0.55098104 4278190335
0.080066048 0.27785817 0.55125666 4278190335
0.041617244 0.27442789 0.55933368 4278190335
0.041969489 0.27390841 0.55879462 4278190335
0.04232369 0.27361175 0.55844116 4278190335
0.042676382 0.2733421 0.55811071 4278190335
0.043026991 0.27307406 0.55778217 4278190335
0.043375529 0.27280775 0.55745572 4278190335
0.043721993 0.27254283 0.55713105 4278190335
0.044066425 0.27227947 0.55680835 4278190335
0.04440885 0.27201766 0.55648744 4278190335
0.044749279 0.27175757 0.55616862 4278190335
0.045087706 0.2714988 0.55585152 4278190335
0.045424156 0.27124155 0.55553627 4278190335
0.045758687 0.27098578 0.55522275 4278190335
0.046091229 0.27073151 0.55491114 4278190335
0.046421919 0.27047884 0.55460143 4278190335
0.04675068 0.27022749 0.55429339 4278190335
0.047077551 0.26997757 0.55398709 4278190335
0.047402553 0.26972908 0.55368257 4278190335
0.047725726 0.26948214 0.55337989 4278190335
0.048047062 0.26923648 0.55307877 4278190335
0.048366558 0.26899219 0.55277944 4278190335
0.048684254 0.26874927 0.55248171 4278190335
0.049000151 0.26850775 0.55218571 4278190335
0.04931429 0.26826775 0.55189151 4278190335
0.049626663 0.26802889 0.55159879 4278190335
0.0499373 0.26779139 0.55130774 4278190335
0.050246201 0.26755521 0.55101824 4278190335
0.050553378 0.26732048 0.55073059 4278190335
0.050858863 0.26708692 0.5504443 4278190335
0.051162645 0.26685464 0.55015969 4278190335
0.051464766 0.26662368 0.54987657 4278190335
0.051765248 0.26639408 0.54959512 4278190335
0.05206405 0.26616561 0.54931515 4278190335
0.052361216 0.26593837 0.54903668 4278190335
0.052656807 0.26571256 0.54875988 4278190335
0.052950758 0.26548782 0.54848444 4278190335
0.053243104 0.26526427 0.5482105 4278190335
0.053533904 0.26504198 0.54793799 4278190335
0.053823128 0.26482096 0.54766709 4278190335
0.054110799 0.26460102 0.54739755 4278190335
0.054396909 0.26438227 0.54712945 4278190335
0.054681517 0.26416484 0.54686296 4278190335
0.054964568 0.26394838 0.54659766 4278190335
0.055246126 0.26373309 0.54633385 4278190335
0.055526182 0.26351896 0.54607141 4278190335
0.055804808 0.26330611 0.54581046 4278190335
0.056081928 0.26309422 0.54555082 4278190335
0.056357589 0.26288345 0.5452925 4278190335
0.056631785 0.26267377 0.54503554 4278190335
0.056904599 0.26246536 0.54478002 4278190335
0.057175949 0.2622579 0.5445258 4278190335
0.057445869 0.26205149 0.54427284 4278190335
0.057714429 0.2618463 0.54402131 4278190335
0.057981573 0.26164207 0.54377103 4278190335
0.05824735 0.26143885 0.54352194 4278190335
0.058516223 0.2612555 0.54328859 4278190335
0.058793347 0.26111209 0.54308611 4278190335
0.059079945 0.26101175 0.54291677 4278190335
0.059376415 0.26095393 0.54278004 4278190335
0.059682541 0.26093581 0.54267359 4278190335
0.059996497 0.26094854 0.54259056 4278190335
0.060318973 0.26099333 0.54253173 4278190335
0.060652819 0.2610794 0.54250407 4278190335
0.061001215 0.26121667 0.5425148 4278190335
0.061366584 0.26141176 0.54256868 4278190335
0.061758149 0.26169521 0.54268867 4278190335
0.062175877 0.26206332 0.54287153 4278190335
0.062600084 0.26244375 0.54306275 4278190335
0.063028365 0.26282766 0.54325569 4278190335
0.063460827 0.26321548 0.54345059 4278190335
0.063897498 0.26360708 0.54364747 4278190335
0.064338438 0.26400238 0.54384613 4278190335
0.064783759 0.26440173 0.54404682 4278190335
0.065233439 0.26480487 0.54424942 4278190335
0.065687664 0.26521218 0.54445416 4278190335
0.066146433 0.2656236 0.54466093 4278190335
0.066609733 0.26603895 0.54486966 4278190335
0.067077786 0.26645866 0.54508066 4278190335
0.067550607 0.26688269 0.54529381 4278190335
0.068028204 0.26731083 0.54550898 4278190335
0.068510741 0.26774356 0.54572642 4278190335
0.068998262 0.26818076 0.54594618 4278190335
0.06949079 0.26862234 0.54616809 4278190335
0.069988519 0.26906863 0.54639244 4278190335
0.070491418 0.2695196 0.54661912 4278190335
0.070999607 0.26997519 0.54684806 4278190335
0.071513213 0.27043578 0.54707956 4278190335
0.072032236 0.27090108 0.54731345 4278190335
0.072556868 0.27137157 0.5475499 4278190335
0.073087074 0.27184689 0.54778874 4278190335
0.073623113 0.27232757 0.54803038 4278190335
0.074164882 0.27281329 0.54827446 4278190335
0.074712656 0.27330449 0.5485214 4278190335
0.075266376 0.27380091 0.54877084 4278190335
0.07582631 0.27430305 0.54902327 4278190335
0.07639239 0.27481055 0.54927826 4278190335
0.076964781 0.27532375 0.54953623 4278190335
0.077543721 0.27584288 0.54979712 4278190335
0.07812912 0.27636769 0.55006087 4278190335
0.078721225 0.27689865 0.55032778 4278190335
0.079320036 0.27743551 0.55059755 4278190335
0.079925835 0.27797875 0.5508706 4278190335
0.041528247 0.27452379 0.5589329 4278190335
0.041881058 0.27403212 0.55841959 4278190335
0.04223524 0.27373835 0.55807018 4278190335
0.042587813 0.27346858 0.55774111 4278190335
0.042938296 0.2732006 0.55741417 4278190335
0.043286696 0.27293405 0.55708909 4278190335
0.043633059 0.27266905 0.55676585 4278190335
0.043977372 0.27240562 0.55644453 4278190335
0.044319682 0.27214393 0.55612528 4278190335
0.044659972 0.27188358 0.55580771 4278190335
0.044998288 0.27162471 0.55549198 4278190335
0.045334652 0.2713674 0.55517805 4278190335
0.045669042 0.27111155 0.55486602 4278190335
0.046001535 0.27085736 0.55455589 4278190335
0.046332091 0.27060443 0.55424738 4278190335
0.046660777 0.27035296 0.55394065 4278190335
0.046987552 0.27010295 0.55363572 4278190335
0.047312494 0.26985455 0.55333269 4278190335
0.047635533 0.26960737 0.55303121 4278190335
0.047956787 0.26936159 0.55273139 4278190335
0.048276205 0.26911721 0.55243331 4278190335
0.048593793 0.2688742 0.5521369 4278190335
0.048909657 0.26863274 0.55184233 4278190335
0.04922368 0.26839244 0.55154926 4278190335
0.049535982 0.26815352 0.55125779 4278190335
0.049846541 0.2679159 0.55096793 4278190335
0.050155375 0.26767981 0.55067992 4278190335
0.050462496 0.26744482 0.55039334 4278190335
0.050767917 0.26721117 0.55010831 4278190335
0.051071625 0.2669788 0.54982483 4278190335
0.051373716 0.26674783 0.54954308 4278190335
0.051674113 0.26651803 0.54926276 4278190335
0.051972844 0.26628944 0.54898393 4278190335
0.052270003 0.26606226 0.54870683 4278190335
0.052565493 0.26583618 0.54843104 4278190335
0.052859385 0.26561132 0.54815674 4278190335
0.053151719 0.26538768 0.54788399 4278190335
0.05344246 0.26516539 0.54761279 4278190335
0.053731628 0.26494417 0.54734296 4278190335
0.054019231 0.26472408 0.54707456 4278190335
0.05430533 0.26450539 0.54680771 4278190335
0.05458989 0.26428768 0.54654217 4278190335
0.054872893 0.26407114 0.546278 4278190335
0.055154432 0.26385573 0.54601526 4278190335
0.055434484 0.26364163 0.54575408 4278190335
0.055713043 0.26342851 0.54549414 4278190335
0.055990133 0.26321653 0.54523557 4278190335
0.05626573 0.26300564 0.54497838 4278190335
0.056539949 0.26279604 0.54472262 4278190335
0.056812692 0.26258734 0.54446805 4278190335
0.057084009 0.26237974 0.54421484 4278190335
0.057353962 0.26217338 0.54396307 4278190335
0.057622474 0.26196793 0.5437125 4278190335
0.057889603 0.26176357 0.54346323 4278190335
0.058155335 0.26156023 0.54321522 4278190335
0.058424179 0.2613768 0.54298282 4278190335
0.058701128 0.26123303 0.54278088 4278190335
0.058987495 0.26113233 0.54261184 4278190335
0.059283752 0.26107451 0.54247552 4278190335
0.059589513 0.2610561 0.54236901 4278190335
0.059903055 0.2610684 0.54228568 4278190335
0.060225066 0.26111281 0.54222643 4278190335
0.060558464 0.26119891 0.54219842 4278190335
0.060906228 0.26133576 0.54220819 4278190335
0.061270747 0.2615301 0.54226071 4278190335
0.061661284 0.26181263 0.54237866 4278190335
0.062077887 0.26218003 0.54255927 4278190335
0.06250114 0.26256049 0.54274863 4278190335
0.062928535 0.2629447 0.54293996 4278190335
0.06336005 0.26333269 0.54313314 4278190335
0.06379573 0.2637243 0.54332817 4278190335
0.064235732 0.26411989 0.5435251 4278190335
0.06468007 0.26451936 0.54372406 4278190335
0.065128766 0.26492268 0.54392481 4278190335
0.065581985 0.26533014 0.5441277 4278190335
0.066039719 0.26574168 0.54433262 4278190335
0.066501975 0.26615718 0.54453951 4278190335
0.066969 0.26657706 0.5447486 4278190335
0.067440718 0.26700118 0.54495978 4278190335
0.06791722 0.26742947 0.54517305 4278190335
0.068398647 0.26786232 0.54538858 4278190335
0.068885036 0.26829961 0.54560632 4278190335
0.069376402 0.26874128 0.5458262 4278190335
0.069872983 0.26918772 0.54604852 4278190335
0.07037466 0.26963869 0.54627299 4278190335
0.070881717 0.27009451 0.54649997 4278190335
0.071394101 0.2705552 0.54672939 4278190335
0.071911894 0.27102062 0.54696113 4278190335
0.072435267 0.27149117 0.54719543 4278190335
0.072964214 0.27196661 0.54743212 4278190335
0.073498942 0.27244738 0.54767156 4278190335
0.074039407 0.27293316 0.54791337 4278190335
0.074585758 0.27342424 0.54815787 4278190335
0.075138219 0.27392092 0.54840517 4278190335
0.07569667 0.27442291 0.54865515 4278190335
0.076261431 0.27493066 0.54890794 4278190335
0.076832414 0.27544388 0.54916346 4278190335
0.077409871 0.27596307 0.54942203 4278190335
0.077993788 0.27648792 0.54968333 4278190335
0.078584418 0.27701893 0.54994774 4278190335
0.079181716 0.27755576 0.55021501 4278190335
0.07978595 0.27809903 0.55048549 4278190335
0.041439489 0.27461922 0.55853307 4278190335
0.041792884 0.27415553 0.55804539 4278190335
0.042146996 0.27386478 0.5577001 4278190335
0.04249943 0.27359495 0.55737257 4278190335
0.042849794 0.27332675 0.55704695 4278190335
0.043198079 0.27306011 0.55672324 4278190335
0.043544296 0.27279505 0.55640149 4278190335
0.043888506 0.27253172 0.55608171 4278190335
0.044230688 0.27226973 0.55576372 4278190335
0.044570871 0.27200931 0.55544752 4278190335
0.044909075 0.27175036 0.55513322 4278190335
0.045245346 0.27149311 0.55482084 4278190335
0.045579631 0.27123719 0.55451012 4278190335
0.045912009 0.27098274 0.55420125 4278190335
0.046242457 0.27072975 0.5538941 4278190335
0.046571031 0.27047819 0.55358875 4278190335
0.046897732 0.27022827 0.55328524 4278190335
0.047222558 0.26997957 0.55298334 4278190335
0.047545549 0.2697323 0.55268317 4278190335
0.047866687 0.26948646 0.55238473 4278190335
0.048186038 0.26924214 0.55208808 4278190335
0.048503567 0.26899904 0.55179298 4278190335
0.048819311 0.26875731 0.55149949 4278190335
0.049133286 0.2685169 0.55120766 4278190335
0.049445517 0.26827788 0.55091751 4278190335
0.049756013 0.26804036 0.55062908 4278190335
0.050064769 0.26780397 0.55034214 4278190335
0.050371818 0.26756892 0.55005676 4278190335
0.050677143 0.26733518 0.54977298 4278190335
0.050980829 0.26710284 0.54949087 4278190335
0.051282812 0.2668716 0.54921019 4278190335
0.05158316 0.26664168 0.54893106 4278190335
0.051881865 0.26641315 0.5486536 4278190335
0.052178927 0.26618576 0.54837751 4278190335
0.052474391 0.26595956 0.54810292 4278190335
0.052768227 0.26573458 0.54782981 4278190335
0.053060535 0.26551098 0.54755831 4278190335
0.053351182 0.26528844 0.54728818 4278190335
0.053640287 0.2650671 0.54701948 4278190335
0.053927891 0.26484707 0.54675227 4278190335
0.054213926 0.26462811 0.5464865 4278190335
0.054498449 0.26441026 0.54622203 4278190335
0.054781433 0.26419362 0.545959 4278190335
0.055062912 0.26397827 0.54569757 4278190335
0.055342931 0.26376393 0.54543734 4278190335
0.055621438 0.26355067 0.54517841 4278190335
0.055898495 0.26333857 0.54492092 4278190335
0.056174114 0.26312771 0.54466492 4278190335
0.056448258 0.26291782 0.54441011 4278190335
0.056720976 0.26270902 0.54415667 4278190335
0.056992292 0.26250148 0.5439046 4278190335
0.057262175 0.26229486 0.54365379 4278190335
0.057530671 0.26208931 0.54340428 4278190335
0.057797767 0.26188484 0.54315603 4278190335
0.058063515 0.26168153 0.54290915 4278190335
0.058332257 0.26149768 0.54267746 4278190335
0.05860908 0.26135373 0.54247618 4278190335
0.058895223 0.26125267 0.54230756 4278190335
0.059191257 0.2611948 0.54217154 4278190335
0.059496701 0.26117614 0.54206502 4278190335
0.059809837 0.26118818 0.54198152 4278190335
0.060131319 0.26123208 0.54192173 4278190335
0.060464319 0.26131824 0.54189348 4278190335
0.060811393 0.26145458 0.5419023 4278190335
0.06117516 0.26164836 0.54195344 4278190335
0.061564602 0.26192975 0.54206926 4278190335
0.061980102 0.26229653 0.54224759 4278190335
0.06240245 0.2626771 0.54243529 4278190335
0.062828884 0.26306152 0.54262495 4278190335
0.06325949 0.26344967 0.5428164 4278190335
0.063694224 0.26384139 0.54300958 4278190335
0.064133264 0.26423717 0.54320484 4278190335
0.064576626 0.26463681 0.54340196 4278190335
0.065024316 0.26504025 0.54360092 4278190335
0.065476499 0.26544785 0.54380202 4278190335
0.065933168 0.2658594 0.54400498 4278190335
0.066394433 0.26627517 0.54421008 4278190335
0.0668604 0.2666952 0.54441726 4278190335
0.067330994 0.26711926 0.54462641 4278190335
0.067806467 0.26754782 0.54483783 4278190335
0.068286806 0.26798084 0.54505146 4278190335
0.068772025 0.2684181 0.54526711 4278190335
0.069262318 0.26886004 0.54548508 4278190335
0.069757722 0.2693066 0.54570538 4278190335
0.070258252 0.26975763 0.54592782 4278190335
0.070764087 0.27021357 0.54615271 4278190335
0.071275271 0.27067438 0.54638004 4278190335
0.071791828 0.27113989 0.54660964 4278190335
0.072313882 0.27161035 0.54684168 4278190335
0.072841622 0.27208602 0.54707628 4278190335
0.073375009 0.27256668 0.54731333 4278190335
0.073914215 0.27305272 0.54755312 4278190335
0.074459247 0.27354389 0.54779536 4278190335
0.075010344 0.27404064 0.54804039 4278190335
0.075567417 0.27454269 0.54828805 4278190335
0.076130785 0.27505049 0.54853851 4278190335
0.076700337 0.27556378 0.54879165 4278190335
0.077276349 0.27608296 0.54904777 4278190335
0.077858813 0.27660787 0.54930663 4278190335
0.078447931 0.27713886 0.54956859 4278190335
0.079043716 0.27767578 0.54983342 4278190335
0.079646409 0.27821904 0.5501014 4278190335
0.041351002 0.2747153 0.55813515 4278190335
0.041704874 0.27427843 0.5576719 4278190335
0.042058967 0.27399078 0.55733073 4278190335
0.042411268 0.27372086 0.55700463 4278190335
0.042761486 0.27345258 0.5566805 4278190335
0.043109637 0.27318603 0.55635834 4278190335
0.043455739 0.27292094 0.55603802 4278190335
0.043799829 0.27265733 0.55571955 4278190335
0.044141892 0.27239528 0.55540293 4278190335
0.044481974 0.27213475 0.55508816 4278190335
0.044820085 0.27187592 0.55477536 4278190335
0.045156203 0.27161843 0.55446422 4278190335
0.04549041 0.27136239 0.55415487 4278190335
0.04582268 0.27110785 0.55384737 4278190335
0.046153042 0.27085495 0.55354172 4278190335
0.046481531 0.2706033 0.55323768 4278190335
0.046808138 0.27035311 0.55293536 4278190335
0.047132846 0.27010435 0.55263484 4278190335
0.047455721 0.26985699 0.55233598 4278190335
0.047776815 0.26961121 0.55203891 4278190335
0.048096053 0.26936662 0.55174345 4278190335
0.0484135 0.26912341 0.5514496 4278190335
0.048729148 0.26888162 0.55115741 4278190335
0.049043074 0.26864129 0.55086696 4278190335
0.049355228 0.26840219 0.55057812 4278190335
0.049665634 0.2681644 0.55029076 4278190335
0.049974319 0.26792789 0.55000502 4278190335
0.050281309 0.26769271 0.54972088 4278190335
0.050586581 0.26745903 0.54943848 4278190335
0.050890189 0.26722643 0.54915744 4278190335
0.051192112 0.26699513 0.54887801 4278190335
0.05149243 0.26676527 0.5486002 4278190335
0.051791057 0.2665365 0.54832375 4278190335
0.052088056 0.26630893 0.54804885 4278190335
0.052383453 0.26608264 0.54777545 4278190335
0.052677255 0.26585773 0.54750359 4278190335
0.052969474 0.26563388 0.54723316 4278190335
0.053260121 0.26541126 0.54696417 4278190335
0.053549211 0.26518995 0.54669672 4278190335
0.053836729 0.26496968 0.54643059 4278190335
0.054122698 0.26475054 0.54616582 4278190335
0.054407157 0.26453266 0.54590255 4278190335
0.05469013 0.26431605 0.54564077 4278190335
0.054971583 0.26410043 0.54538023 4278190335
0.055251546 0.26388597 0.54512119 4278190335
0.05553003 0.26367259 0.54486334 4278190335
0.055807069 0.26346052 0.54460704 4278190335
0.056082644 0.26324943 0.54435199 4278190335
0.056356758 0.26303941 0.54409826 4278190335
0.056629475 0.26283067 0.54384601 4278190335
0.056900736 0.2626228 0.5435949 4278190335
0.0571706 0.26241612 0.54334515 4278190335
0.057439074 0.26221043 0.5430966 4278190335
0.05770617 0.26200598 0.54284954 4278190335
0.05797188 0.26180243 0.54260361 4278190335
0.058240563 0.26161849 0.54237282 4278190335
0.058517199 0.26147413 0.54217207 4278190335
0.05880313 0.2613728 0.54200381 4278190335
0.059098978 0.26131505 0.54186827 4278190335
0.059404049 0.26129594 0.54176164 4278190335
0.05971675 0.2613076 0.54167783 4278190335
0.060037784 0.26135111 0.54161769 4278190335
0.060370352 0.26143733 0.54158908 4278190335
0.060716767 0.2615732 0.54159695 4278190335
0.061079722 0.26176623 0.54164672 4278190335
0.061468065 0.26204652 0.54176039 4278190335
0.061882462 0.26241261 0.54193652 4278190335
0.062303949 0.26279351 0.5421226 4278190335
0.062729485 0.26317808 0.54231054 4278190335
0.063159086 0.26356623 0.54250014 4278190335
0.063592918 0.26395831 0.54269177 4278190335
0.064030997 0.26435417 0.54288518 4278190335
0.064473331 0.26475385 0.54308045 4278190335
0.064920068 0.26515755 0.54327774 4278190335
0.06537126 0.26556531 0.54347694 4278190335
0.0658269 0.26597694 0.5436781 4278190335
0.066287167 0.26639289 0.5438813 4278190335
0.066752031 0.26681301 0.54408664 4278190335
0.067221589 0.26723728 0.54429388 4278190335
0.067695983 0.26766598 0.54450339 4278190335
0.068175212 0.26809907 0.54471505 4278190335
0.068659298 0.26853642 0.54492867 4278190335
0.069148488 0.26897851 0.54514474 4278190335
0.069642708 0.26942515 0.54536295 4278190335
0.070142075 0.26987633 0.54558337 4278190335
0.070646726 0.2703324 0.54580629 4278190335
0.071156636 0.27079308 0.54603136 4278190335
0.071672022 0.27125883 0.54625893 4278190335
0.072192863 0.27172941 0.54648882 4278190335
0.072719321 0.27220517 0.54672134 4278190335
0.073251419 0.27268592 0.54695618 4278190335
0.073789328 0.27317205 0.54719377 4278190335
0.074333034 0.27366328 0.54743373 4278190335
0.074882776 0.27416009 0.5476765 4278190335
0.075438499 0.2746622 0.54792178 4278190335
0.076000474 0.27517003 0.54816997 4278190335
0.076568611 0.27568334 0.54842073 4278190335
0.077143177 0.27620259 0.54867446 4278190335
0.077724159 0.2767275 0.54893088 4278190335
0.078311816 0.27725857 0.5491904 4278190335
0.078906052 0.27779549 0.54945278 4278190335
0.079507194 0.27833873 0.5497182 4278190335
0.080330238 0.27939978 0.55034143 4278190335
0.041263051 0.27482894 0.55775285 4278190335
0.041617092 0.27440131 0.55729944 4278190335
0.04197111 0.27411649 0.55696219 4278190335
0.042323269 0.27384651 0.55663753 4278190335
0.042673357 0.27357835 0.556315 4278190335
0.043021388 0.27331159 0.55599421 4278190335
0.043367382 0.27304631 0.55567521 4278190335
0.043711357 0.27278268 0.55535817 4278190335
0.044053279 0.27252054 0.55504298 4278190335
0.044393256 0.2722601 0.5547297 4278190335
0.044731259 0.272001 0.55441815 4278190335
0.045067273 0.27174345 0.55410838 4278190335
0.045401376 0.27148733 0.55380046 4278190335
0.045733552 0.27123287 0.55349439 4278190335
0.046063825 0.2709797 0.55318993 4278190335
0.046392206 0.27072799 0.55288726 4278190335
0.046718676 0.27047771 0.55258626 4278190335
0.047043331 0.27022898 0.5522871 4278190335
0.047366112 0.26998156 0.55198961 4278190335
0.047687117 0.26973552 0.55169368 4278190335
0.048006255 0.2694909 0.55139953 4278190335
0.048323642 0.26924759 0.55110693 4278190335
0.048639249 0.26900584 0.55081618 4278190335
0.048953034 0.26876524 0.55052686 4278190335
0.049265124 0.26852602 0.55023921 4278190335
0.049575463 0.26828814 0.54995316 4278190335
0.049884085 0.26805174 0.54966879 4278190335
0.050190985 0.26781645 0.54938591 4278190335
0.050496198 0.26758248 0.54910451 4278190335
0.050799739 0.26734981 0.54882473 4278190335
0.051101595 0.26711857 0.54854661 4278190335
0.051401824 0.26688841 0.54826987 4278190335
0.051700424 0.26665956 0.54799461 4278190335
0.051997356 0.2664319 0.54772091 4278190335
0.052292719 0.26620567 0.54744875 4278190335
0.052586474 0.26598048 0.54717797 4278190335
0.052878629 0.26575652 0.54690862 4278190335
0.053169232 0.26553392 0.54664087 4278190335
0.053458259 0.26531237 0.5463745 4278190335
0.053745743 0.26509199 0.5461095 4278190335
0.054031666 0.26487282 0.54584593 4278190335
0.054316092 0.2646549 0.54558384 4278190335
0.054599021 0.26443806 0.54532301 4278190335
0.054880414 0.26422232 0.54506361 4278190335
0.055160344 0.26400778 0.54480565 4278190335
0.055438831 0.26379442 0.54454899 4278190335
0.055715811 0.26358214 0.5442937 4278190335
0.055991337 0.2633709 0.54403973 4278190335
0.056265462 0.26316091 0.54378712 4278190335
0.056538098 0.26295188 0.54353583 4278190335
0.056809358 0.26274398 0.54328579 4278190335
0.057079189 0.26253712 0.54303706 4278190335
0.057347644 0.26233149 0.5427897 4278190335
0.057614714 0.26212674 0.54254353 4278190335
0.057880405 0.26192307 0.54229856 4278190335
0.058149017 0.26173908 0.54206878 4278190335
0.058425538 0.26159438 0.54186863 4278190335
0.058711253 0.26149282 0.54170078 4278190335
0.059006851 0.26143491 0.54156548 4278190335
0.059311558 0.26141551 0.54145879 4278190335
0.059623864 0.26142675 0.54137474 4278190335
0.059944458 0.26147005 0.5413143 4278190335
0.060276572 0.26155627 0.5412854 4278190335
0.060622323 0.26169154 0.54129219 4278190335
0.060984462 0.26188388 0.54134059 4278190335
0.061371796 0.26216319 0.54145223 4278190335
0.061785098 0.26252863 0.54162616 4278190335
0.062205646 0.26290965 0.54181057 4278190335
0.062630273 0.2632944 0.54199678 4278190335
0.063058935 0.26368266 0.54218471 4278190335
0.063491814 0.26407489 0.54237455 4278190335
0.063928939 0.26447093 0.54256624 4278190335
0.064370289 0.26487073 0.54275972 4278190335
0.064816073 0.26527461 0.54295522 4278190335
0.065266237 0.26568249 0.54315263 4278190335
0.065720871 0.2660943 0.54335195 4278190335
0.066180088 0.26651037 0.54355335 4278190335
0.066643879 0.26693049 0.54375666 4278190335
0.067112431 0.267355 0.54396212 4278190335
0.067585722 0.26778382 0.54416966 4278190335
0.068063781 0.26821688 0.54437923 4278190335
0.068546854 0.26865453 0.54459107 4278190335
0.069034897 0.2690967 0.54480511 4278190335
0.069527932 0.26954332 0.5450213 4278190335
0.070026167 0.26999477 0.54523981 4278190335
0.07052964 0.27045089 0.54546058 4278190335
0.071038358 0.27091169 0.54568356 4278190335
0.071552515 0.27137756 0.54590905 4278190335
0.072072104 0.2718482 0.54613686 4278190335
0.072597325 0.27232406 0.54636717 4278190335
0.073128127 0.27280486 0.54659986 4278190335
0.07366474 0.27329108 0.54683518 4278190335
0.074207127 0.27378237 0.54707295 4278190335
0.074755535 0.27427924 0.54731345 4278190335
0.075309888 0.27478138 0.54755646 4278190335
0.075870454 0.2752893 0.54780233 4278190335
0.07643716 0.27580264 0.54805076 4278190335
0.077010348 0.27632192 0.54830205 4278190335
0.077589862 0.27684689 0.54855615 4278190335
0.078175932 0.27737772 0.54881305 4278190335
0.078768753 0.27791485 0.54907298 4278190335
0.079368271 0.27845791 0.54933584 4278190335
0.080081843 0.27926347 0.5497781 4278190335
0.041175339 0.27494207 0.55737138 4278190335
0.041529521 0.27452388 0.55692786 4278190335
0.041883469 0.27424192 0.55659449 4278190335
0.042235501 0.27397209 0.55627143 4278190335
0.042585451 0.2737036 0.55595016 4278190335
0.042933371 0.27343675 0.55563074 4278190335
0.043279249 0.27317148 0.55531323 4278190335
0.04362306 0.27290791 0.55499774 4278190335
0.043964915 0.27264571 0.55468392 4278190335
0.044304736 0.27238503 0.55437195 4278190335
0.044642635 0.27212584 0.55406171 4278190335
0.044978555 0.27186817 0.55375338 4278190335
0.045312561 0.27161217 0.55344689 4278190335
0.045644619 0.27135745 0.55314201 4278190335
0.045974769 0.27110422 0.55283892 4278190335
0.046303041 0.27085239 0.55253756 4278190335
0.046629447 0.2706022 0.55223805 4278190335
0.046953991 0.27035326 0.55194008 4278190335
0.047276702 0.27010572 0.55164385 4278190335
0.047597598 0.26985958 0.55134928 4278190335
0.047916658 0.26961482 0.55105633 4278190335
0.048233975 0.26937163 0.55076516 4278190335
0.048549458 0.2691296 0.55047554 4278190335
0.048863221 0.26888892 0.55018747 4278190335
0.049175199 0.26864961 0.54990107 4278190335
0.049485486 0.26841179 0.54961634 4278190335
0.049794015 0.26817515 0.54933316 4278190335
0.050100856 0.26793975 0.5490514 4278190335
0.050406002 0.26770571 0.54877126 4278190335
0.050709501 0.2674731 0.54849285 4278190335
0.051011283 0.26724157 0.54821575 4278190335
0.051311441 0.26701134 0.54794019 4278190335
0.051609956 0.26678237 0.54766613 4278190335
0.051906861 0.2665548 0.54739374 4278190335
0.052202154 0.26632828 0.5471226 4278190335
0.052495845 0.266103 0.54685301 4278190335
0.052787967 0.26587909 0.54658496 4278190335
0.053078525 0.2656562 0.54631823 4278190335
0.053367492 0.26543453 0.54605293 4278190335
0.05365492 0.26521412 0.54578906 4278190335
0.053940833 0.26499495 0.54552674 4278190335
0.054225232 0.2647768 0.54526561 4278190335
0.054508071 0.26455984 0.54500598 4278190335
0.054789435 0.26434398 0.54474765 4278190335
0.055069357 0.26412943 0.54449081 4278190335
0.055347756 0.26391587 0.54423523 4278190335
0.05562472 0.26370344 0.54398096 4278190335
0.055900231 0.26349226 0.54372811 4278190335
0.056174289 0.26328206 0.54347658 4278190335
0.056446929 0.26307291 0.54322624 4278190335
0.056718159 0.26286486 0.54297721 4278190335
0.056987986 0.26265803 0.54272968 4278190335
0.057256389 0.26245216 0.54248327 4278190335
0.057523426 0.26224732 0.54223812 4278190335
0.057789117 0.26204368 0.54199433 4278190335
0.058057643 0.26185927 0.54176521 4278190335
0.058334 0.26171437 0.54156572 4278190335
0.058619495 0.26161247 0.54139823 4278190335
0.058914896 0.26155451 0.54126322 4278190335
0.059219263 0.26153484 0.54115653 4278190335
0.059531193 0.26154584 0.54107237 4278190335
0.059851274 0.26158857 0.54101145 4278190335
0.060182974 0.26167488 0.54098219 4278190335
0.060528092 0.26180968 0.54098809 4278190335
0.060889442 0.26200143 0.54103518 4278190335
0.061275702 0.26227966 0.54114473 4278190335
0.061687902 0.26264435 0.54131639 4278190335
0.06210757 0.26302561 0.5414992 4278190335
0.06253121 0.26341033 0.54168361 4278190335
0.062958993 0.26379889 0.54186988 4278190335
0.063390955 0.26419127 0.54205805 4278190335
0.063827068 0.26458734 0.54224789 4278190335
0.064267516 0.26498738 0.5424397 4278190335
0.064712286 0.26539141 0.54263341 4278190335
0.065161414 0.26579928 0.54282892 4278190335
0.065615073 0.26621139 0.54302651 4278190335
0.066073261 0.26662758 0.543226 4278190335
0.066536017 0.26704782 0.54342747 4278190335
0.067003503 0.26747245 0.54363108 4278190335
0.067475714 0.26790139 0.54383671 4278190335
0.0679527 0.26833457 0.54404438 4278190335
0.068434648 0.26877236 0.54425424 4278190335
0.068921544 0.26921463 0.54446632 4278190335
0.069413438 0.26966137 0.54468048 4278190335
0.069910534 0.27011287 0.5448969 4278190335
0.070412822 0.27056915 0.54511565 4278190335
0.070920326 0.27103004 0.5453366 4278190335
0.071433298 0.271496 0.54556 4278190335
0.07195162 0.27196673 0.54578567 4278190335
0.07247562 0.27244267 0.54601383 4278190335
0.073005117 0.27292356 0.54624438 4278190335
0.073540449 0.27340978 0.54647744 4278190335
0.074081518 0.27390119 0.54671299 4278190335
0.074628562 0.27439806 0.54695123 4278190335
0.075181566 0.27490032 0.54719198 4278190335
0.07574068 0.27540803 0.5474354 4278190335
0.07630606 0.27592161 0.54768163 4278190335
0.076877721 0.27644077 0.54793048 4278190335
0.077455863 0.27696592 0.54818225 4278190335
0.078040466 0.27749684 0.54843676 4278190335
0.078631788 0.27803397 0.54869425 4278190335
0.07922978 0.27857703 0.54895461 4278190335
0.079924636 0.27934256 0.54936576 4278190335
0.041087829 0.27505514 0.55699098 4278190335
0.041442122 0.27464595 0.55655694 4278190335
0.041796006 0.27436724 0.55622768 4278190335
0.042147893 0.27409714 0.55590594 4278190335
0.042497747 0.27382866 0.5555861 4278190335
0.042845506 0.27356172 0.55526817 4278190335
0.043191262 0.27329651 0.5549522 4278190335
0.043534979 0.2730327 0.55463791 4278190335
0.043876693 0.2727704 0.55432552 4278190335
0.044216417 0.27250966 0.55401492 4278190335
0.044554211 0.27225059 0.55370623 4278190335
0.044890009 0.27199286 0.55339921 4278190335
0.045223888 0.27173656 0.55309397 4278190335
0.045555845 0.27148175 0.5527904 4278190335
0.045885909 0.27122843 0.55248868 4278190335
0.046214081 0.27097672 0.55218875 4278190335
0.046540417 0.27072626 0.55189043 4278190335
0.04686486 0.27047721 0.55159378 4278190335
0.04718747 0.27022961 0.55129886 4278190335
0.047508273 0.26998353 0.55100566 4278190335
0.047827274 0.26973867 0.55071402 4278190335
0.048144478 0.26949522 0.55042398 4278190335
0.048459891 0.26925313 0.55013561 4278190335
0.048773553 0.26901239 0.54984885 4278190335
0.049085483 0.26877311 0.54956377 4278190335
0.049395673 0.26853502 0.54928017 4278190335
0.049704138 0.2682983 0.54899818 4278190335
0.050010912 0.26806286 0.54871768 4278190335
0.050316013 0.26782882 0.54843885 4278190335
0.050619412 0.26759595 0.54816151 4278190335
0.050921135 0.26736435 0.5478856 4278190335
0.051221233 0.26713401 0.54761124 4278190335
0.051519718 0.26690507 0.54733849 4278190335
0.051816542 0.26667723 0.54706705 4278190335
0.052111793 0.26645061 0.54679716 4278190335
0.052405413 0.26622525 0.5465287 4278190335
0.052697495 0.26600122 0.54626179 4278190335
0.052987985 0.26577827 0.54599619 4278190335
0.053276889 0.26555651 0.54573202 4278190335
0.053564318 0.2653361 0.5454694 4278190335
0.053850166 0.26511669 0.54520804 4278190335
0.054134503 0.26489845 0.5449481 4278190335
0.054417312 0.26468137 0.54468954 4278190335
0.054698672 0.26446554 0.5444324 4278190335
0.05497852 0.26425076 0.54417652 4278190335
0.055256892 0.26403707 0.54392201 4278190335
0.055533823 0.26382467 0.54366893 4278190335
0.055809304 0.26361325 0.5434171 4278190335
0.056083322 0.26340294 0.54316652 4278190335
0.056355931 0.26319367 0.54291731 4278190335
0.056627128 0.26298568 0.54266948 4278190335
0.056896936 0.26277861 0.54242277 4278190335
0.057165302 0.26257259 0.54217744 4278190335
0.057432346 0.26236778 0.54193342 4278190335
0.057697978 0.26216388 0.54169053 4278190335
0.057966456 0.26197937 0.54146236 4278190335
0.058242671 0.26183411 0.5412634 4278190335
0.058527954 0.26173189 0.54109621 4278190335
0.058823109 0.2616739 0.54096162 4278190335
0.059127185 0.26165411 0.54085505 4278190335
0.059438638 0.26166454 0.54077047 4278190335
0.059758272 0.26170692 0.54070914 4278190335
0.060089551 0.26179326 0.54067957 4278190335
0.060434055 0.26192769 0.5406847 4278190335
0.06079457 0.26211858 0.5407303 4278190335
0.061179806 0.26239583 0.54083788 4278190335
0.061590936 0.26275989 0.54100734 4278190335
0.062009681 0.26314124 0.54118848 4278190335
0.062432434 0.26352617 0.54137123 4278190335
0.062859297 0.26391488 0.54155576 4278190335
0.063290298 0.26430741 0.54174221 4278190335
0.063725442 0.2647036 0.54193032 4278190335
0.064164914 0.26510379 0.54212034 4278190335
0.064608723 0.26550797 0.54231226 4278190335
0.065056875 0.26591599 0.54250598 4278190335
0.065509498 0.26632819 0.54270172 4278190335
0.065966681 0.26674455 0.54289943 4278190335
0.066428386 0.26716492 0.54309905 4278190335
0.066894799 0.26758969 0.54330075 4278190335
0.067365892 0.26801857 0.54350436 4278190335
0.067841858 0.26845202 0.54371023 4278190335
0.068322673 0.26888993 0.54391813 4278190335
0.068808421 0.26933214 0.54412812 4278190335
0.069299228 0.26977912 0.54434037 4278190335
0.069795161 0.27023074 0.54455483 4278190335
0.070296198 0.27068695 0.54477143 4278190335
0.070802599 0.27114812 0.54499042 4278190335
0.071314327 0.27161413 0.54521173 4278190335
0.071831442 0.27208495 0.54543525 4278190335
0.072354153 0.27256098 0.54566133 4278190335
0.072882414 0.27304196 0.54588968 4278190335
0.073416382 0.2735281 0.54612046 4278190335
0.073956192 0.27401972 0.54635394 4278190335
0.074501835 0.27451649 0.54658979 4278190335
0.075053565 0.27501893 0.54682839 4278190335
0.075611286 0.2755267 0.54706949 4278190335
0.076175287 0.27604038 0.54731339 4278190335
0.076745495 0.2765595 0.54755986 4278190335
0.077322192 0.27708468 0.54780924 4278190335
0.077905335 0.27761561 0.54806137 4278190335
0.078495145 0.27815276 0.54831642 4278190335
0.079091623 0.27869582 0.54857427 4278190335
0.079768032 0.27942154 0.54895484 4278190335
0.041000564 0.27516791 0.5566116 4278190335
0.041354939 0.27476797 0.55618703 4278190335
0.041708741 0.27449211 0.55586159 4278190335
0.042060517 0.27422196 0.55554134 4278190335
0.042410217 0.27395356 0.55522305 4278190335
0.042757865 0.27368656 0.55490649 4278190335
0.043103475 0.27342111 0.55459177 4278190335
0.043447092 0.27315721 0.55427897 4278190335
0.043788668 0.27289486 0.55396795 4278190335
0.044128306 0.27263421 0.55365884 4278190335
0.044465974 0.27237484 0.55335134 4278190335
0.044801664 0.27211702 0.55304569 4278190335
0.04513542 0.27186066 0.55274177 4278190335
0.045467298 0.27160597 0.55243975 4278190335
0.045797255 0.27135256 0.55213928 4278190335
0.046125341 0.27110058 0.55184054 4278190335
0.046451554 0.27085003 0.55154353 4278190335
0.046775911 0.27060091 0.55124819 4278190335
0.047098443 0.27035338 0.55095464 4278190335
0.047419153 0.27010706 0.55066264 4278190335
0.047738064 0.26986217 0.5503723 4278190335
0.048055161 0.2696186 0.55008352 4278190335
0.048370536 0.26937655 0.54979652 4278190335
0.04868412 0.26913571 0.54951096 4278190335
0.048995938 0.26889622 0.54922706 4278190335
0.04930605 0.26865804 0.54894471 4278190335
0.049614444 0.26842117 0.54866385 4278190335
0.049921185 0.26818579 0.54838473 4278190335
0.050226174 0.26795152 0.54810703 4278190335
0.050529514 0.26771855 0.54783082 4278190335
0.050831165 0.26748684 0.5475561 4278190335
0.051131252 0.26725659 0.54728305 4278190335
0.051429644 0.26702738 0.54701132 4278190335
0.051726393 0.26679945 0.54674113 4278190335
0.052021589 0.26657274 0.54647231 4278190335
0.052315183 0.26634741 0.5462051 4278190335
0.052607186 0.26612315 0.54593927 4278190335
0.052897617 0.26590008 0.5456748 4278190335
0.053186521 0.26567838 0.54541188 4278190335
0.053473875 0.26545769 0.54515022 4278190335
0.053759672 0.26523817 0.54488999 4278190335
0.054043945 0.26501983 0.54463112 4278190335
0.054326769 0.26480278 0.54437375 4278190335
0.054608058 0.26458675 0.54411763 4278190335
0.054887872 0.26437181 0.54386282 4278190335
0.055166245 0.26415819 0.5436095 4278190335
0.05544313 0.26394555 0.54335737 4278190335
0.055718534 0.26373398 0.54310662 4278190335
0.055992529 0.26352355 0.54285711 4278190335
0.056265134 0.26331437 0.54260904 4278190335
0.05653628 0.26310608 0.54236215 4278190335
0.056806035 0.26289889 0.54211652 4278190335
0.057074443 0.26269293 0.54187226 4278190335
0.057341419 0.26248786 0.54162914 4278190335
0.057607047 0.26228389 0.54138732 4278190335
0.057875428 0.26209909 0.54115993 4278190335
0.058151506 0.26195362 0.54096162 4278190335
0.05843658 0.2618511 0.54079485 4278190335
0.058731541 0.26179323 0.54066074 4278190335
0.059035257 0.26177299 0.54055399 4278190335
0.059346348 0.26178315 0.54046929 4278190335
0.059665475 0.261825 0.54040742 4278190335
0.059996292 0.26191139 0.54037756 4278190335
0.060340185 0.26204538 0.54038179 4278190335
0.060699888 0.26223552 0.54042602 4278190335
0.061084114 0.26251179 0.54053164 4278190335
0.061494142 0.26287517 0.54069889 4278190335
0.061912004 0.2632567 0.54087836 4278190335
0.062333845 0.26364172 0.54105937 4278190335
0.062759779 0.26403061 0.5412423 4278190335
0.063189805 0.26442313 0.5414269 4278190335
0.063624047 0.26481962 0.54161334 4278190335
0.064062566 0.26521999 0.54180169 4278190335
0.064505324 0.26562414 0.54199171 4278190335
0.064952537 0.2660324 0.54218376 4278190335
0.065404147 0.26644477 0.54237771 4278190335
0.065860249 0.26686108 0.54257345 4278190335
0.066320986 0.26728174 0.54277128 4278190335
0.066786356 0.26770663 0.54297113 4278190335
0.067256384 0.26813567 0.54317284 4278190335
0.067731254 0.26856923 0.5433768 4278190335
0.068210974 0.26900721 0.5435828 4278190335
0.068695597 0.26944956 0.54379082 4278190335
0.069185264 0.26989666 0.5440011 4278190335
0.069680028 0.27034837 0.54421353 4278190335
0.070179924 0.27080464 0.54442811 4278190335
0.070685096 0.27126592 0.54464507 4278190335
0.07119558 0.27173188 0.54486418 4278190335
0.071711548 0.27220294 0.54508567 4278190335
0.072232932 0.27267885 0.54530948 4278190335
0.072760001 0.27316007 0.5455358 4278190335
0.073292665 0.27364627 0.54576445 4278190335
0.073831163 0.27413794 0.54599571 4278190335
0.074375495 0.27463481 0.54622936 4278190335
0.074925862 0.27513728 0.54646564 4278190335
0.075482212 0.27564511 0.54670447 4278190335
0.076044813 0.27615878 0.54694605 4278190335
0.076613605 0.27667797 0.54719019 4278190335
0.077188864 0.2772032 0.54743719 4278190335
0.077770546 0.2777341 0.54768687 4278190335
0.078358874 0.27827126 0.54793954 4278190335
0.078953825 0.27881438 0.54819494 4278190335
0.079612054 0.27950054 0.54854548 4278190335
0.040913481 0.27528045 0.55623311 4278190335
0.041267958 0.27488971 0.55581802 4278190335
0.041621663 0.27461675 0.55549634 4278190335
0.041973323 0.27434668 0.55517763 4278190335
0.042322882 0.27407801 0.55486065 4278190335
0.042670395 0.27381095 0.55454552 4278190335
0.043015901 0.27354541 0.55423218 4278190335
0.04335938 0.27328146 0.55392075 4278190335
0.04370087 0.27301919 0.55361122 4278190335
0.044040356 0.27275831 0.55330336 4278190335
0.044377908 0.27249888 0.55299723 4278190335
0.044713501 0.27224097 0.55269295 4278190335
0.045047186 0.27198473 0.55239052 4278190335
0.04537892 0.27172974 0.55208969 4278190335
0.045708787 0.27147624 0.55179054 4278190335
0.046036754 0.2712242 0.55149317 4278190335
0.046362877 0.27097356 0.55119741 4278190335
0.046687149 0.27072456 0.5509035 4278190335
0.047009595 0.27047673 0.55061108 4278190335
0.047330208 0.27023035 0.55032039 4278190335
0.047649018 0.26998532 0.55003124 4278190335
0.047966082 0.26974183 0.54974389 4278190335
0.048281323 0.26949957 0.54945803 4278190335
0.048594844 0.26925865 0.54917371 4278190335
0.048906591 0.26901904 0.54889101 4278190335
0.049216639 0.26878077 0.54860985 4278190335
0.04952497 0.26854396 0.54833043 4278190335
0.049831599 0.26830834 0.54805237 4278190335
0.05013651 0.26807395 0.5477758 4278190335
0.050439812 0.26784089 0.54750079 4278190335
0.050741427 0.26760927 0.54722744 4278190335
0.051041402 0.26737872 0.54695541 4278190335
0.051339731 0.26714948 0.54668486 4278190335
0.051636446 0.2669214 0.54641581 4278190335
0.051931586 0.26669475 0.5461483 4278190335
0.052225117 0.26646918 0.54588211 4278190335
0.052517068 0.2662448 0.5456174 4278190335
0.052807495 0.26602179 0.54535419 4278190335
0.053096298 0.26579982 0.54509228 4278190335
0.053383585 0.26557904 0.54483175 4278190335
0.053669337 0.26535943 0.54457259 4278190335
0.053953629 0.2651411 0.54431492 4278190335
0.054236352 0.26492384 0.54405856 4278190335
0.054517604 0.26470768 0.54380351 4278190335
0.054797433 0.26449281 0.5435499 4278190335
0.055075713 0.26427895 0.54329753 4278190335
0.055352543 0.26406619 0.54304653 4278190335
0.055627957 0.2638545 0.54279679 4278190335
0.055901941 0.2636441 0.54254842 4278190335
0.056174498 0.26343465 0.5423013 4278190335
0.056445625 0.26322627 0.54205543 4278190335
0.056715369 0.26301914 0.54181093 4278190335
0.056983721 0.26281291 0.54156762 4278190335
0.057250675 0.26260772 0.54132551 4278190335
0.057516258 0.26240361 0.54108465 4278190335
0.057784602 0.26221874 0.54085821 4278190335
0.058060538 0.26207292 0.5406605 4278190335
0.058345374 0.26197007 0.54049408 4278190335
0.058640145 0.26191217 0.54036027 4278190335
0.058943491 0.26189163 0.54025352 4278190335
0.059254155 0.26190138 0.54016852 4278190335
0.059572864 0.26194298 0.54010642 4278190335
0.059903286 0.26202944 0.54007626 4278190335
0.060246471 0.2621628 0.54007947 4278190335
0.060605396 0.2623522 0.54012233 4278190335
0.06098862 0.26262751 0.54022598 4278190335
0.061397571 0.26299021 0.54039115 4278190335
0.061814494 0.26337177 0.54056883 4278190335
0.062235452 0.26375705 0.5407483 4278190335
0.062660471 0.26414609 0.5409295 4278190335
0.063089557 0.26453876 0.54111236 4278190335
0.06352286 0.2649354 0.54129714 4278190335
0.063960426 0.26533592 0.5414837 4278190335
0.064402208 0.26574016 0.54167193 4278190335
0.064848423 0.2661486 0.54186219 4278190335
0.065299056 0.26656109 0.5420543 4278190335
0.065754123 0.26697752 0.54224825 4278190335
0.066213824 0.26739833 0.54244429 4278190335
0.066678129 0.26782334 0.54264224 4278190335
0.067147113 0.26825246 0.54284209 4278190335
0.067620873 0.26868615 0.54304409 4278190335
0.068099499 0.26912424 0.54324818 4278190335
0.068582997 0.26956671 0.54345423 4278190335
0.069071546 0.2700139 0.54366255 4278190335
0.069565125 0.27046558 0.54387289 4278190335
0.070063904 0.27092209 0.5440855 4278190335
0.070567906 0.27138346 0.54430044 4278190335
0.071077175 0.27184948 0.54451746 4278190335
0.071591891 0.27232063 0.54473692 4278190335
0.072112031 0.2727966 0.54495859 4278190335
0.072637834 0.27327791 0.54518282 4278190335
0.073169231 0.27376416 0.54540926 4278190335
0.073706456 0.27425593 0.54563832 4278190335
0.074249431 0.2747528 0.54586971 4278190335
0.074798465 0.27525535 0.54610378 4278190335
0.075353451 0.27576324 0.54634035 4278190335
0.075914629 0.27627692 0.5465796 4278190335
0.076482043 0.27679613 0.54682142 4278190335
0.077055849 0.27732137 0.54706609 4278190335
0.077636056 0.27785233 0.54731333 4278190335
0.078222908 0.27838948 0.54756355 4278190335
0.078816347 0.27893257 0.54781646 4278190335
0.079456575 0.27957925 0.54813743 4278190335
0.040826648 0.27539247 0.55585545 4278190335
0.041181199 0.27501297 0.55545121 4278190335
0.041534781 0.27474123 0.55513203 4278190335
0.041886285 0.27447093 0.55481458 4278190335
0.042235751 0.2742022 0.55449903 4278190335
0.042583138 0.27393505 0.55418527 4278190335
0.042928506 0.27366966 0.55387354 4278190335
0.043271862 0.27340561 0.55356342 4278190335
0.043613221 0.27314308 0.55325514 4278190335
0.043952633 0.2728821 0.55294865 4278190335
0.044290036 0.27262264 0.55264395 4278190335
0.044625543 0.27236483 0.5523411 4278190335
0.044959094 0.27210829 0.55203986 4278190335
0.04529075 0.2718533 0.55174035 4278190335
0.045620501 0.27159971 0.55144256 4278190335
0.045948375 0.2713477 0.55114657 4278190335
0.046274405 0.271097 0.55085212 4278190335
0.046598572 0.27084774 0.5505594 4278190335
0.046920918 0.27059984 0.55026829 4278190335
0.047241446 0.27035335 0.54997879 4278190335
0.047560196 0.27010843 0.54969108 4278190335
0.047877155 0.26986468 0.54940486 4278190335
0.048192326 0.26962233 0.54912019 4278190335
0.048505746 0.26938128 0.54883718 4278190335
0.048817445 0.26914176 0.54855579 4278190335
0.049127415 0.2689034 0.54827589 4278190335
0.049435649 0.26866636 0.54799747 4278190335
0.049742214 0.26843062 0.54772067 4278190335
0.050047088 0.26819617 0.5474453 4278190335
0.050350305 0.26796314 0.54717159 4278190335
0.050651845 0.26773128 0.54689932 4278190335
0.050951742 0.26750064 0.54662848 4278190335
0.051250022 0.26727128 0.54635906 4278190335
0.051546689 0.26704326 0.54609126 4278190335
0.051841781 0.26681641 0.54582483 4278190335
0.052135233 0.26659071 0.54555976 4278190335
0.052427143 0.26636636 0.54529625 4278190335
0.052717488 0.26614311 0.54503405 4278190335
0.053006273 0.26592103 0.54477328 4278190335
0.053293515 0.26570013 0.54451382 4278190335
0.053579234 0.26548058 0.54425597 4278190335
0.053863447 0.26526201 0.54399925 4278190335
0.054146141 0.26504466 0.54374397 4278190335
0.054427389 0.26482853 0.54349017 4278190335
0.054707106 0.26461342 0.54323751 4278190335
0.054985363 0.26439941 0.54298615 4278190335
0.055262178 0.26418656 0.54273623 4278190335
0.055537578 0.26397493 0.54248762 4278190335
0.055811498 0.26376423 0.5422402 4278190335
0.056084022 0.26355469 0.54199409 4278190335
0.056355152 0.26334637 0.54174942 4278190335
0.056624852 0.26313898 0.54150581 4278190335
0.056893155 0.26293263 0.54126352 4278190335
0.057160091 0.26272738 0.54102248 4278190335
0.057425674 0.26252326 0.54078269 4278190335
0.057693947 0.26233819 0.54055715 4278190335
0.057969712 0.26219198 0.54035985 4278190335
0.058254369 0.26208892 0.54019392 4278190335
0.058548886 0.26203087 0.5400604 4278190335
0.058851924 0.26201007 0.53995359 4278190335
0.059162203 0.26201957 0.53986853 4278190335
0.059480421 0.26206064 0.53980589 4278190335
0.059810411 0.2621471 0.53977543 4278190335
0.060152981 0.26227999 0.53977776 4278190335
0.060511131 0.26246881 0.53981936 4278190335
0.060893312 0.262743 0.53992093 4278190335
0.061301202 0.26310501 0.54008394 4278190335
0.061717194 0.26348668 0.54026002 4278190335
0.062137276 0.26387215 0.54043782 4278190335
0.062561385 0.26426136 0.54061735 4278190335
0.062989533 0.26465416 0.54079854 4278190335
