# .PCD v0.7 - Point Cloud Data file format
VERSION 0.7
FIELDS x y z
SIZE 4 4 4
TYPE F F F
COUNT 1 1 1
WIDTH 1222
HEIGHT 1
VIEWPOINT 0 0 0 1 0 0 0
POINTS 1222
DATA ascii
0.003496045 0.030268542 -0.00548951
0.00450039 0.030288126 -0.0054693469
0.0055346973 0.030279227 -0.0054864637
0.0064684595 0.030257298 -0.0055426313
0.0074622626 0.030276204 -0.0055096783
0.0084004747 0.030274857 -0.0054802806
0.0094755786 0.030259594 -0.0055228686
0.010547363 0.030270673 -0.0054977676
0.01150641 0.030261554 -0.0054598255
0.012462287 0.030254817 -0.0055033299
0.013480145 0.030259278 -0.005527284
0.014542778 0.030250421 -0.0054931506
0.015300216 0.030233089 -0.0054978472
-0.015259028 -0.029499263 -0.0045466204
-0.014483979 -0.029647762 -0.0044750106
-0.013435157 -0.029742599 -0.0044558221
-0.01249427 -0.029771417 -0.0044903364
-0.011481235 -0.029733112 -0.0044541201
-0.010585155 -0.029757455 -0.0045289565
-0.0095167058 -0.029734259 -0.0044663548
-0.0085003916 -0.029734492 -0.0045339065
-0.0075203651 -0.029746553 -0.0045300066
-0.0065137087 -0.029735269 -0.0045271171
-0.0055159293 -0.029750556 -0.004508669
-0.0044901529 -0.029749166 -0.0045188186
-0.0035026516 -0.029727234 -0.0044943714
-0.0025287082 -0.029741138 -0.0044879965
-0.0015003853 -0.029744996 -0.0045315186
-0.00050788902 -0.0297279 -0.004524658
0.00047325817 -0.029736074 -0.0045253146
0.0015003964 -0.029745001 -0.0045315609
0.002528803 -0.029741071 -0.0044880752
0.0035025803 -0.029727183 -0.0044944263
0.0044901744 -0.029749125 -0.0045188526
0.0055156853 -0.029750573 -0.0045084134
0.0065138037 -0.029735241 -0.004527289
0.007520535 -0.02974657 -0.0045302128
0.0085004503 -0.029734537 -0.0045339507
0.0095166992 -0.029734228 -0.0044663576
0.010585144 -0.029757436 -0.0045289309
0.011481222 -0.029733054 -0.0044541345
0.012494273 -0.029771421 -0.0044903173
0.013435158 -0.029742593 -0.0044558323
0.014509519 -0.029635247 -0.0045328946
0.015305344 -0.029511562 -0.0043810816
-0.015292986 -0.02855924 -0.0044308095
-0.014645238 -0.028463505 -0.0045945304
0.014644589 -0.028452862 -0.0045698215
0.015320638 -0.028577928 -0.0044138376
-0.015283646 -0.027530877 -0.0044282167
-0.014672102 -0.02756854 -0.004498879
0.014646578 -0.027517414 -0.0045626326
0.015314155 -0.027533829 -0.0044481605
-0.01524524 -0.026485566 -0.0044176159
-0.014665753 -0.026523309 -0.0045681135
0.014767194 -0.026584024 -0.0045314967
0.015320359 -0.02651209 -0.0044722031
-0.015287849 -0.02548828 -0.004468265
-0.014670777 -0.025469556 -0.0045437855
0.014649314 -0.025531985 -0.00450374
0.015329751 -0.025479782 -0.0045062085
-0.015307739 -0.024516797 -0.0044737081
-0.014638038 -0.024449456 -0.0045624902
0.014669666 -0.024596052 -0.0045401827
0.015332342 -0.024519149 -0.0045634047
-0.015244475 -0.023521025 -0.0044950726
-0.014644311 -0.023469066 -0.0045756241
0.01471431 -0.023520464 -0.0045813075
0.01530778 -0.023472641 -0.0044771195
-0.015252287 -0.022470377 -0.0045112604
-0.014644341 -0.022417676 -0.0044687456
0.014679546 -0.022383215 -0.0044781901
0.015285402 -0.022484701 -0.004470929
-0.015290752 -0.021519354 -0.0045431275
-0.014643556 -0.021511462 -0.0045054201
0.014750816 -0.02139367 -0.0043872334
0.015362485 -0.021565629 -0.0045305849
-0.015256868 -0.020459771 -0.0045433962
-0.014683774 -0.020500921 -0.0044725593
0.014707407 -0.020464005 -0.0044539077
0.015326663 -0.020568978 -0.0045243409
-0.015293214 -0.01953754 -0.0045154262
-0.014665514 -0.019498643 -0.0045517571
0.014624867 -0.019446541 -0.004542368
0.015329144 -0.01958245 -0.0044951397
-0.015265851 -0.018504562 -0.0045547136
-0.014638372 -0.018565465 -0.0044942736
0.014735009 -0.018470367 -0.0044843354
0.015335667 -0.018557513 -0.0045225611
-0.015318565 -0.017512873 -0.0045183245
-0.014631758 -0.017536778 -0.004479202
0.014689316 -0.017498177 -0.004496533
0.01529634 -0.017476384 -0.0044930768
-0.015310643 -0.016523486 -0.0045516868
-0.014674542 -0.016492691 -0.0045429738
0.014631507 -0.016465342 -0.0045110206
0.015318603 -0.01652823 -0.0044170828
-0.015319161 -0.015466698 -0.0045311628
-0.014652133 -0.015454469 -0.0045422614
0.014661366 -0.015567362 -0.0045130523
0.015327371 -0.015560387 -0.0044446131
-0.015287616 -0.014532161 -0.0045265649
-0.014659309 -0.014362478 -0.0045196381
0.014666083 -0.014449668 -0.0045658699
0.015313358 -0.014484856 -0.0044545131
-0.015283923 -0.013469229 -0.0045357738
-0.014714561 -0.013513389 -0.0046415618
0.014679297 -0.013502575 -0.0044821682
0.015321493 -0.013553008 -0.0044096839
-0.015309843 -0.012387384 -0.0044768397
-0.014706831 -0.012549868 -0.0045562889
0.01468571 -0.012464529 -0.0044944086
0.015322926 -0.012464705 -0.0043806457
-0.015290186 -0.011398838 -0.0045267898
-0.014668148 -0.011467226 -0.004533146
0.014722638 -0.011499179 -0.0045181541
0.015313568 -0.011523736 -0.0043689343
-0.01531643 -0.01038258 -0.0044769309
-0.014693931 -0.010506412 -0.0045739799
0.014688256 -0.010485686 -0.0045016943
0.015316417 -0.010411454 -0.0044599823
-0.015337715 -0.0094217965 -0.0044668415
-0.014700686 -0.0094725527 -0.0045556412
0.014647158 -0.0093952483 -0.004436126
0.015330832 -0.009452695 -0.0044239182
-0.015334821 -0.0084827431 -0.0044724401
-0.014589542 -0.0084813833 -0.0046653519
0.014688891 -0.0085828165 -0.0045730411
0.015326034 -0.0084688859 -0.0045139734
-0.015334784 -0.0075113084 -0.004469451
-0.01466566 -0.0075092455 -0.00459872
0.014658451 -0.0074578216 -0.0045618997
0.015297334 -0.0074934494 -0.0044807019
-0.015279609 -0.0065148082 -0.0044451323
-0.014691977 -0.006520682 -0.0045962823
0.014708087 -0.0064034909 -0.0045735561
0.015329319 -0.0063991346 -0.0045132772
-0.015357506 -0.005508808 -0.0044974722
-0.014646243 -0.0055377185 -0.0045575914
0.014699887 -0.0054674959 -0.0045862729
0.015328659 -0.005382542 -0.0045181788
-0.015316555 -0.0044621369 -0.0044174562
-0.014633666 -0.0045180391 -0.0044875662
0.01473822 -0.0044911276 -0.0045845481
0.015351397 -0.0044413279 -0.0045704562
-0.015296568 -0.0034035477 -0.0044521755
-0.014652834 -0.0035643142 -0.0044962522
0.014652632 -0.0035762219 -0.0045932024
0.015364986 -0.0034530575 -0.0046265936
-0.015295614 -0.0024584741 -0.0044570258
-0.014676007 -0.002552951 -0.0044902358
0.014679164 -0.0025705679 -0.004543365
0.015371324 -0.0024520014 -0.004585918
-0.01535113 -0.0015303236 -0.0044665677
-0.014634573 -0.0015202975 -0.0044937432
0.014672372 -0.0014681828 -0.0045157634
0.015359978 -0.0014264716 -0.0045306855
-0.015281303 -0.00049128383 -0.0044160835
-0.014648143 -0.00046754 -0.0045621218
0.014646591 -0.00049788732 -0.0045244796
0.015366108 -0.00049276999 -0.0045749187
-0.015306538 0.00052702735 -0.0044662398
-0.014681824 0.0005688548 -0.0044838404
0.014662545 0.00056531804 -0.004468156
0.015391841 0.00043835651 -0.0044864337
-0.015322044 0.0014211272 -0.0044687283
-0.014662931 0.0015645467 -0.0045032608
0.014593356 0.0015503722 -0.0043685855
0.015371493 0.0015232256 -0.0044916905
-0.015330407 0.0025003769 -0.0044689095
-0.014656146 0.0026144502 -0.0044782967
0.014642133 0.0025640358 -0.0044872989
0.01532562 0.0025679599 -0.0045857518
-0.015305575 0.0035216445 -0.0045219371
-0.014640857 0.0036044936 -0.0044688284
0.014630437 0.0035029773 -0.0044610235
0.015332115 0.003414368 -0.0045314059
-0.015340823 0.0044704182 -0.0045179725
-0.014654095 0.0045173694 -0.0044682841
0.01466899 0.0045945277 -0.0044846502
0.015343152 0.0044392268 -0.0045625637
-0.015326204 0.0054744803 -0.004550294
-0.014673622 0.0054576439 -0.0044699013
0.014685269 0.0056054411 -0.0045756013
0.015338675 0.0055117323 -0.004567489
-0.015308673 0.006458214 -0.0044422816
-0.014651907 0.0064466088 -0.0045322268
0.014718625 0.0064826095 -0.0044406233
0.015313387 0.0065461355 -0.0045809681
-0.015314214 0.0075429655 -0.0044455198
-0.014633434 0.0074980459 -0.0044768369
0.014692036 0.0074673514 -0.0045995088
0.015358391 0.00770678 -0.0045949528
-0.015329703 0.0085619483 -0.0044952184
-0.01460939 0.0084678466 -0.004535526
0.01474181 0.0085570589 -0.0045516468
0.015367251 0.0085950801 -0.0046042427
-0.015345897 0.0095178774 -0.0044380748
-0.014641512 0.009519292 -0.0045219506
0.014677441 0.0095145237 -0.0045854002
0.015294801 0.0094138356 -0.0045887413
-0.015310191 0.010409305 -0.0045190705
-0.014607398 0.010553341 -0.0045396737
0.014681539 0.010509669 -0.0045158239
0.015354311 0.010515507 -0.0046164347
-0.015347525 0.011386234 -0.0044448287
-0.014693975 0.011559436 -0.0045321556
0.014683341 0.011532972 -0.0045978562
0.015335992 0.011428501 -0.0046406109
-0.015350606 0.012402231 -0.0045165587
-0.014664553 0.012428426 -0.0045224722
0.014699322 0.012513549 -0.0044989488
0.015307836 0.01246608 -0.0046371259
-0.015301811 0.013481802 -0.0045146146
-0.014687761 0.013460498 -0.0045083887
0.014790308 0.013495483 -0.0044941939
0.015340416 0.013502131 -0.004564445
-0.015325244 0.014504731 -0.0045586079
-0.014699184 0.014511493 -0.0045497208
0.014710944 0.014538567 -0.0044784392
0.01532333 0.014433889 -0.0046508815
-0.015347501 0.015536153 -0.0045162914
-0.014658056 0.015552581 -0.0044962056
0.014688842 0.015591963 -0.0045272526
0.01531484 0.015501541 -0.0045577795
-0.015306835 0.01654359 -0.0045416639
-0.014644249 0.01649115 -0.004523837
0.014675002 0.016520567 -0.0045346366
0.01532176 0.016513839 -0.0045830477
-0.015344298 0.017463561 -0.0045549157
-0.014688885 0.017545072 -0.0045075789
0.014703783 0.017470099 -0.0044533582
0.015305564 0.017448094 -0.0045307279
-0.015334181 0.018492941 -0.0045326045
-0.014678675 0.018529722 -0.0045298752
0.014718622 0.018377589 -0.0045282142
0.01534581 0.018369673 -0.0044454401
-0.015317351 0.019437844 -0.0044909096
-0.014680647 0.019488733 -0.0046052164
0.014703821 0.019443942 -0.0044713989
0.015315354 0.019403441 -0.0044442774
-0.015338164 0.020500891 -0.0044876104
-0.014663025 0.020472312 -0.0046119587
0.014707153 0.020428324 -0.0045232
0.01531683 0.020469498 -0.004486416
-0.01526621 0.02141322 -0.0045893202
-0.014691037 0.02148322 -0.0046257819
0.014713659 0.021501187 -0.0045563998
0.015315538 0.021539586 -0.00451867
-0.015325741 0.022502573 -0.0045241495
-0.01466129 0.022440573 -0.0046375245
0.014683664 0.022457579 -0.0045273076
0.01528783 0.022555511 -0.0045032031
-0.01526289 0.023525869 -0.0045162477
-0.014681675 0.023485404 -0.0046099052
0.014724579 0.02352285 -0.0045222729
0.015320088 0.023391433 -0.0045181033
-0.015345471 0.024409002 -0.0045251613
-0.014650798 0.024469515 -0.0045791953
0.014679343 0.024547044 -0.0044933418
0.015314937 0.024443712 -0.0045461804
-0.015260153 0.025393581 -0.0045468146
-0.014645927 0.025453167 -0.0045650643
0.01472256 0.025526429 -0.0044723749
0.015318953 0.025429836 -0.0044800756
-0.015321086 0.026432941 -0.0044551939
-0.014689115 0.026557395 -0.0045458334
0.014787423 0.026502892 -0.0045542032
0.015302739 0.026483778 -0.0044269618
-0.015263624 0.027387526 -0.0044170949
-0.014675754 0.027587136 -0.004490349
0.014733617 0.027560297 -0.0045398707
0.015312677 0.027447509 -0.0044724634
-0.015341257 0.028430577 -0.0044343113
-0.014679011 0.028573481 -0.0045500128
0.014736739 0.028502662 -0.0045589479
0.015304173 0.028405249 -0.0044735172
-0.015241534 0.029488327 -0.0044164015
-0.014656581 0.029504977 -0.0045295074
-0.013420582 0.029999733 -0.00447352
-0.012674987 0.029999733 -0.00447352
-0.011556581 0.029999793 -0.00447352
-0.010438234 0.029999793 -0.00447352
-0.0096926093 0.029999733 -0.00447352
-0.0085742474 0.029999733 -0.00447352
-0.0074558258 0.029999733 -0.00447352
-0.0067102611 0.029999793 -0.00447352
-0.0055918992 0.029999733 -0.00447352
-0.0044735074 0.029999733 -0.00447352
-0.0037279427 0.029999733 -0.00447352
-0.0026095361 0.029999793 -0.00447352
-0.001491189 0.029999733 -0.00447352
-0.0007455647 0.029999793 -0.00447352
0.00037279725 0.029999763 -0.00447352
0.001491189 0.029999793 -0.00447352
0.002609551 0.029999793 -0.00447352
0.0037279427 0.029999733 -0.00447352
0.0044735372 0.029999793 -0.00447352
0.005591929 0.029999793 -0.00447352
0.0067102909 0.029999852 -0.00447352
0.0074559152 0.029999733 -0.00447352
0.0085742474 0.029999733 -0.00447352
0.0096926987 0.029999793 -0.00447352
0.010438204 0.029999793 -0.00447352
0.011556596 0.029999793 -0.00447352
0.012674987 0.029999733 -0.00447352
0.013420582 0.029999733 -0.00447352
0.014717381 0.029503621 -0.0045599425
0.015298176 0.029487582 -0.004493617
-0.015308952 0.030256633 -0.0044674515
-0.014494446 0.030270388 -0.0044834674
-0.013578979 0.030259902 -0.0044765673
-0.012517407 0.030246936 -0.0044672769
-0.011498571 0.030281933 -0.0044924254
-0.010513226 0.030254165 -0.0044926344
-0.0095100533 0.030261181 -0.0045387293
-0.0084974291 0.030272461 -0.0045099882
-0.0074654017 0.030266795 -0.004528367
-0.006501792 0.030245939 -0.0045535117
-0.0055063912 0.030267805 -0.0044802525
-0.0044884123 0.03024224 -0.0045071505
-0.0035613682 0.030280886 -0.0044878414
-0.0025228951 0.030275213 -0.0044716806
-0.00155264 0.03026632 -0.0045253444
-0.00054624927 0.030274266 -0.004515247
0.00052154303 0.030272055 -0.0045157713
0.00155254 0.030266285 -0.0045251823
0.0025101369 0.03027935 -0.004459315
0.0035614928 0.030280834 -0.0044878577
0.0044884938 0.030242233 -0.004507198
0.0055064266 0.030267783 -0.0044802637
0.0065019457 0.03024599 -0.0045535113
0.0074655917 0.030266711 -0.0045283311
0.0084973797 0.030272461 -0.0045099715
0.0095101465 0.030261138 -0.0045386986
0.010513268 0.030254111 -0.0044925888
0.011498674 0.030281899 -0.0044924198
0.012517443 0.030246874 -0.0044672671
0.013579044 0.030259877 -0.0044765575
0.014529585 0.030258769 -0.0045220084
0.015310891 0.030259188 -0.0045035174
-0.015273161 -0.02949 -0.0034404714
-0.014436213 -0.02966566 -0.0035034535
-0.01347111 -0.029738437 -0.0035190745
-0.012471802 -0.029749965 -0.0035194976
-0.011499487 -0.029751349 -0.003560259
-0.010505439 -0.029733242 -0.0035489153
-0.0095565561 -0.029756641 -0.0034248512
-0.0085278014 -0.029729968 -0.0035493651
-0.0075428835 -0.029753463 -0.0034517897
-0.0064984602 -0.029748816 -0.0035101695
-0.0055497992 -0.029737404 -0.0034884834
-0.0045086038 -0.029758317 -0.0035544853
-0.0034899169 -0.029746402 -0.0035523416
-0.0025272623 -0.029750785 -0.0034929735
-0.0014691694 -0.029742604 -0.0035157015
-0.00052705774 -0.029742448 -0.0034887705
0.00051556429 -0.029747859 -0.0034905418
0.0014691427 -0.029742662 -0.0035156147
0.0025272372 -0.029750772 -0.0034929244
0.0034899616 -0.029746354 -0.0035524236
0.0045086495 -0.029758308 -0.0035544978
0.0055497871 -0.029737441 -0.003488495
0.006498313 -0.029748747 -0.0035100006
0.0075426809 -0.029753447 -0.0034516142
0.0085279578 -0.029729934 -0.0035495304
0.00955668 -0.029756602 -0.0034250405
0.010505438 -0.029733274 -0.0035488629
0.011499487 -0.029751269 -0.0035601868
0.012471821 -0.029749984 -0.0035194911
0.013471115 -0.029738411 -0.0035190736
0.014443328 -0.029641792 -0.0035072332
0.01524989 -0.029567203 -0.003407554
-0.015297859 -0.028513473 -0.0034549509
-0.014640233 -0.028512368 -0.0035345221
0.0146947 -0.028488923 -0.0034859502
0.015300648 -0.028610814 -0.0034367484
-0.015319126 -0.027502943 -0.0034617146
-0.014672629 -0.027550172 -0.0035101597
0.014685311 -0.027520627 -0.0034680078
0.015301589 -0.027530598 -0.0034599002
-0.015323477 -0.026479704 -0.0034520226
-0.014693933 -0.026488278 -0.0035219612
0.014711971 -0.026558558 -0.0034936268
0.015314682 -0.026465904 -0.0035194124
-0.015331247 -0.025516015 -0.0034662427
-0.014673324 -0.025490453 -0.0034845546
0.014693344 -0.0255333 -0.0035427436
0.01529197 -0.025535904 -0.0035418535
-0.015341581 -0.024504751 -0.0035578271
-0.014726879 -0.024515985 -0.0035446857
0.014621065 -0.024486663 -0.0036108228
0.01531884 -0.02451919 -0.0034686977
-0.015325705 -0.023531752 -0.0035179355
-0.014633389 -0.023495624 -0.00350547
0.014686068 -0.023471208 -0.003657473
0.015290473 -0.023489371 -0.0034624415
-0.015326145 -0.022536313 -0.003568335
-0.014721802 -0.02243123 -0.0034884214
0.014628313 -0.022449156 -0.0035604187
0.015283794 -0.0224865 -0.0034942795
-0.015321021 -0.021528607 -0.0035580106
-0.014687394 -0.021578645 -0.0034267118
0.014658002 -0.021494895 -0.0034991929
0.015310913 -0.021484841 -0.0034725673
-0.015360167 -0.020547379 -0.0035162452
-0.014651884 -0.02039846 -0.0034963191
0.014650101 -0.020472832 -0.0034601069
0.015348735 -0.020452235 -0.0034429568
-0.015326917 -0.019490859 -0.0035288827
-0.014683952 -0.019396653 -0.0034423529
0.014651143 -0.019493056 -0.003437232
0.015287979 -0.019470854 -0.0034269518
-0.015309148 -0.018538352 -0.0035105508
-0.014621554 -0.018425459 -0.0035010765
0.014665729 -0.01848197 -0.0034336119
0.015330746 -0.018505359 -0.0034363975
-0.015305693 -0.017408667 -0.0035663955
-0.014677267 -0.017478367 -0.0035709781
0.014658039 -0.017584512 -0.0034511588
0.015299606 -0.017509582 -0.0034583004
-0.015341696 -0.016449528 -0.0035515523
-0.014651157 -0.016573245 -0.0035249698
0.014639302 -0.01653851 -0.0034541565
0.015343505 -0.016550202 -0.0034141187
-0.015299669 -0.015532684 -0.0035400998
-0.014647963 -0.015595533 -0.0035755462
0.01466201 -0.015530027 -0.0035319366
0.015324429 -0.015478286 -0.0034345502
-0.01531547 -0.014539927 -0.0034883306
-0.014643469 -0.014586999 -0.0035536999
0.014626893 -0.014464947 -0.0034349561
0.015347089 -0.014556001 -0.0034541374
-0.015318204 -0.013510422 -0.0034696208
-0.014646362 -0.013422048 -0.0035824478
0.014666619 -0.013387926 -0.0034887542
0.015312728 -0.013497301 -0.0034234039
-0.015343999 -0.012415106 -0.0034714756
-0.01464848 -0.012358884 -0.0035667138
0.014706468 -0.012482063 -0.0035195688
0.01536397 -0.012475741 -0.0034340343
-0.015281487 -0.011442708 -0.0035570555
-0.014614139 -0.011426018 -0.003533303
0.014667936 -0.011481418 -0.0034860393
0.015331491 -0.011474404 -0.0035077312
-0.015324787 -0.010480967 -0.0035056628
-0.01466907 -0.010485178 -0.0035854043
0.014709271 -0.01048013 -0.0035710938
0.015342684 -0.010450453 -0.0035394682
-0.015279499 -0.0095442142 -0.0034898906
-0.014621654 -0.0095113991 -0.0035075808
0.014710535 -0.0094644232 -0.0035304038
0.015337273 -0.0095108142 -0.0034956574
-0.015314911 -0.0085057337 -0.0034580489
-0.014673275 -0.0084638102 -0.0035445588
0.014715842 -0.0084281042 -0.0036155046
0.015380168 -0.0084918113 -0.0034446656
-0.015330801 -0.0075367317 -0.0034644948
-0.014638147 -0.007466455 -0.0035564878
0.014693622 -0.0075471606 -0.0036319196
0.015365672 -0.0075520771 -0.0034577115
-0.015299577 -0.0065407567 -0.0034028888
-0.014663175 -0.0064506265 -0.0035515744
0.014676438 -0.0064905854 -0.0035890692
0.015338815 -0.0065042903 -0.0034801539
-0.015297408 -0.005602845 -0.0034400672
-0.01469762 -0.005437959 -0.0034917716
0.014676697 -0.0054889438 -0.0036007212
0.015371077 -0.0054463609 -0.0034428281
-0.015337595 -0.0044994382 -0.00346775
-0.014695928 -0.0045636022 -0.0034860782
0.014640019 -0.0045817872 -0.003590974
0.01534159 -0.0044944398 -0.0035113464
-0.015319695 -0.0034701736 -0.003420661
-0.014688314 -0.0035067322 -0.0035542338
0.01464502 -0.0035141183 -0.0035845602
0.015266876 -0.0035055205 -0.0034914762
-0.015382223 -0.0025697132 -0.0034812316
-0.014623011 -0.0025437986 -0.0035361648
0.014682258 -0.0024900534 -0.0035936839
0.015351426 -0.0024814249 -0.0036182492
-0.01537499 -0.0016104793 -0.0034768863
-0.01473562 -0.0016662854 -0.0035264851
0.014655611 -0.0015107438 -0.0035866713
0.015294185 -0.001474048 -0.0035905372
-0.015361552 -0.00048731835 -0.0035194799
-0.014683613 -0.00046580198 -0.00355597
0.014686964 -0.00040413308 -0.0036377579
0.015348933 -0.00053465326 -0.0035435862
-0.015322757 0.00055283174 -0.0035209977
-0.014681553 0.00064655696 -0.0035753907
0.014690441 0.00067308353 -0.0036093802
0.015289416 0.00050392264 -0.003596646
-0.015352191 0.0015693543 -0.0035813295
-0.014656267 0.0014904458 -0.003576251
0.014693445 0.0016132222 -0.0035975934
0.015356391 0.001516705 -0.0036413851
-0.01531697 0.0025153251 -0.0035618211
-0.014655623 0.0025079965 -0.0035809451
0.014671057 0.0025214958 -0.0035745308
0.015361874 0.0025253741 -0.0036492292
-0.015317964 0.0035491756 -0.0035102842
-0.014698319 0.0035189029 -0.0035659962
0.014633906 0.0035855197 -0.0035909556
0.015303307 0.0034740563 -0.0036602239
-0.015330041 0.0045265583 -0.0035961622
-0.014722267 0.0045646382 -0.0035465395
0.014637597 0.0045134067 -0.0035884262
0.015399406 0.0044183708 -0.0036009278
-0.015328027 0.0054869479 -0.0034990101
-0.014695181 0.0054530115 -0.003436788
0.014699759 0.005452116 -0.0035559237
0.015358169 0.0054500718 -0.0036504914
-0.015263423 0.0064756507 -0.0035225637
-0.014699366 0.0065432298 -0.0035689787
0.014661092 0.0064814747 -0.0035407331
0.015345545 0.0064979168 -0.0035877675
-0.01530391 0.0073930183 -0.0034491115
-0.014673788 0.0075725261 -0.0035026451
0.014637555 0.0075053782 -0.0035828419
0.015314054 0.0074728178 -0.0035688188
-0.015328385 0.0085070003 -0.0033983204
-0.014702866 0.0086114472 -0.0035571493
0.014621393 0.0085006682 -0.0035408675
0.015370264 0.0085492739 -0.0035690814
-0.015333425 0.0095083164 -0.0033818667
-0.014657484 0.0094357599 -0.0034975242
0.014688849 0.0095649958 -0.0035633924
0.015327242 0.0094981464 -0.0035769062
-0.015333612 0.010523537 -0.0034361943
-0.014669362 0.010468304 -0.0034850806
0.014702031 0.010502806 -0.0035529342
0.015318967 0.010430058 -0.0035138191
-0.015335651 0.011553352 -0.0033956687
-0.014623897 0.011431498 -0.0035189681
0.014691959 0.011499222 -0.0036082237
0.015322501 0.011484124 -0.0035375052
-0.015315186 0.012533792 -0.0034889721
-0.014616905 0.01247449 -0.003502985
0.014673307 0.012475749 -0.0035705857
0.015297012 0.012531376 -0.0035973438
-0.015337178 0.013598705 -0.0034646757
-0.01465891 0.013557708 -0.0035692786
0.014685645 0.013493818 -0.0035590655
0.015329359 0.013554194 -0.0035353701
-0.015404793 0.014440869 -0.0034933309
-0.014620956 0.014523263 -0.0035541272
0.014706615 0.014552404 -0.0035423471
0.015312349 0.014498617 -0.0036006928
-0.015350685 0.015415737 -0.0035449103
-0.014648126 0.015473038 -0.0035247977
0.014695616 0.015532576 -0.0035380984
0.015322419 0.015509078 -0.0035687634
-0.015343744 0.016501591 -0.0035446691
-0.014652935 0.016437484 -0.0035037324
0.014673599 0.016457444 -0.0034851928
0.015358028 0.01648361 -0.0035586599
-0.01531088 0.017439762 -0.003561419
-0.01467071 0.017506514 -0.0035100137
0.014668508 0.017433209 -0.0034550829
0.015308678 0.017494459 -0.0035960793
-0.015355603 0.018535499 -0.0035131255
-0.014683061 0.018587189 -0.0035475141
0.014661894 0.018568708 -0.003434798
0.015339164 0.018481793 -0.0035170782
-0.015319067 0.019447654 -0.0034913903
-0.014669094 0.019530874 -0.0035466671
0.014676495 0.019518584 -0.0034139573
0.015388502 0.019535493 -0.0035334975
-0.015343177 0.020526882 -0.0035690591
-0.014668826 0.020573009 -0.0035393243
0.014664634 0.020531373 -0.0034494395
0.015311066 0.02054322 -0.0034227679
-0.015327984 0.021535134 -0.0036145716
-0.014651741 0.021496339 -0.003575145
0.014664651 0.021464432 -0.0034735417
0.015350331 0.021504117 -0.0035407718
-0.015322492 0.022513442 -0.0035376668
-0.014676224 0.022558166 -0.0035980411
0.014712713 0.022444043 -0.0034481317
0.015374936 0.022557367 -0.003467198
-0.015371338 0.023546346 -0.003580902
-0.014668908 0.023528574 -0.0035725385
0.014658006 0.023511168 -0.0034132353
0.015358347 0.023570552 -0.0034942557
-0.015329555 0.024537601 -0.0036226653
-0.014683236 0.024461959 -0.003542145
0.014680813 0.024543468 -0.0034585528
0.01531187 0.024537627 -0.003434404
-0.015321376 0.0254637 -0.003564459
-0.014692682 0.025467075 -0.0034463066
0.014679848 0.025532356 -0.0035106677
0.015320317 0.025488481 -0.0035036241
-0.015339206 0.026516184 -0.0035502249
-0.014721302 0.026474776 -0.0035280723
0.014677778 0.026550982 -0.0035196706
0.015393091 0.026515003 -0.0034582673
-0.015327495 0.027497144 -0.0035438568
-0.014668576 0.027527876 -0.0035258371
0.014698065 0.027597055 -0.0035887121
0.015309902 0.027543601 -0.0034369198
-0.015382343 0.028538212 -0.0034709196
-0.014672671 0.028458957 -0.003443815
0.0146397 0.028542532 -0.0035974504
0.015333489 0.028603392 -0.0034510104
-0.015256544 0.029526457 -0.003410083
-0.014642186 0.029514099 -0.0035191227
-0.013420582 0.029999733 -0.0037279334
-0.012674987 0.029999733 -0.0037279334
-0.011556581 0.029999793 -0.0037279334
-0.010438234 0.029999793 -0.0037279334
-0.0096926093 0.029999733 -0.0037279334
-0.0085742474 0.029999733 -0.0037279334
-0.0074558258 0.029999733 -0.0037279334
-0.0067102611 0.029999793 -0.0037279334
-0.0055918992 0.029999733 -0.0037279334
-0.0044735074 0.029999733 -0.0037279334
-0.0037279427 0.029999733 -0.0037279334
-0.0026095361 0.029999793 -0.0037279334
-0.001491189 0.029999733 -0.0037279334
-0.0007455647 0.029999793 -0.0037279334
0.00037279725 0.029999763 -0.0037279334
0.001491189 0.029999793 -0.0037279334
0.002609551 0.029999793 -0.0037279334
0.0037279427 0.029999733 -0.0037279334
0.0044735372 0.029999793 -0.0037279334
0.005591929 0.029999793 -0.0037279334
0.0067102909 0.029999852 -0.0037279334
0.0074559152 0.029999733 -0.0037279334
0.0085742474 0.029999733 -0.0037279334
0.0096926987 0.029999793 -0.0037279334
0.010438204 0.029999793 -0.0037279334
0.011556596 0.029999793 -0.0037279334
0.012674987 0.029999733 -0.0037279334
0.013420582 0.029999733 -0.0037279334
0.014679998 0.029533584 -0.0035446684
0.015227169 0.029533423 -0.0034585856
-0.015306528 0.030281633 -0.0034516742
-0.014509998 0.030246887 -0.0035203402
-0.013526406 0.030254303 -0.0034986231
-0.012574625 0.030244533 -0.0034792367
-0.011523 0.030273054 -0.003515763
-0.010446774 0.030272836 -0.003508704
-0.00947385 0.030250935 -0.0035175853
-0.0084969914 0.030283088 -0.0034574554
-0.0075335172 0.03025361 -0.0034869611
-0.0065022074 0.030252457 -0.0034818307
-0.0054673976 0.030266518 -0.0035082626
-0.0045332615 0.030256655 -0.0034582566
-0.0034961007 0.030255135 -0.0035146289
-0.002500023 0.030276271 -0.0034953638
-0.0015031628 0.030237241 -0.003465513
-0.00054893451 0.030260697 -0.0034558349
0.00051544851 0.030258475 -0.0034492959
0.0015032348 0.03023722 -0.0034654562
0.002509047 0.030273348 -0.0034858594
0.0034960259 0.030255102 -0.0035144119
0.0045331609 0.030256696 -0.0034579427
0.0054675099 0.030266523 -0.0035082775
0.0065023522 0.030252481 -0.0034818533
0.0075336918 0.030253623 -0.0034870675
0.0084969616 0.030283066 -0.0034575192
0.0094738957 0.030250929 -0.0035175658
0.010446812 0.030272806 -0.0035086786
0.011522989 0.030273041 -0.0035157413
0.01257466 0.030244485 -0.0034792554
0.013526443 0.03025425 -0.003498636
0.014518954 0.030255493 -0.0035263957
0.015322525 0.030275119 -0.0034760786
-0.015281141 -0.029478202 -0.002550364
-0.014459228 -0.029656267 -0.0024989974
-0.01342367 -0.029747883 -0.0025046831
-0.01245182 -0.029746339 -0.0025061828
-0.011488623 -0.029742539 -0.0025624719
-0.010494717 -0.029750532 -0.002495053
-0.0095166387 -0.029738611 -0.0025177423
-0.0084623601 -0.029728599 -0.0025463568
-0.0075433776 -0.029731605 -0.0025180972
-0.0064749001 -0.029750824 -0.0025267331
-0.0054827733 -0.029757483 -0.0024921098
-0.0044795843 -0.029748278 -0.0024978821
-0.0035068544 -0.029720835 -0.0025181598
-0.0024665995 -0.029760184 -0.0024614343
-0.0014790373 -0.029748036 -0.002508621
-0.00044100787 -0.029738655 -0.0025253785
0.00044102132 -0.02975863 -0.0025147854
0.0014654226 -0.029749995 -0.0025183167
0.0024568404 -0.029758362 -0.0024547984
0.0035069042 -0.029720848 -0.0025181216
0.0044795577 -0.029748207 -0.0024978956
0.0054827244 -0.029757461 -0.0024919957
0.0064749378 -0.029750841 -0.0025267203
0.0075433296 -0.029731633 -0.0025180406
0.0084622614 -0.029728618 -0.0025462271
0.0095166164 -0.029738627 -0.0025177707
0.010494802 -0.029750483 -0.0024951678
0.011488633 -0.029742546 -0.0025624994
0.012451824 -0.029746352 -0.0025061714
0.013423624 -0.029747872 -0.0025046889
0.014414148 -0.029668784 -0.0025236539
0.015263001 -0.029487539 -0.0025687595
-0.015337193 -0.028554305 -0.0025147405
-0.014638412 -0.028502762 -0.0024802412
0.014685947 -0.028502384 -0.0024815169
0.015375671 -0.028506197 -0.0025576907
-0.015311819 -0.027517114 -0.0025613154
-0.01469613 -0.027466893 -0.002412393
0.014731972 -0.027537895 -0.002412952
0.015340531 -0.027516883 -0.0025652002
-0.015265574 -0.026481638 -0.0024788224
-0.014679224 -0.026493501 -0.0024304939
0.014722726 -0.026468934 -0.002501708
0.015328457 -0.026467688 -0.0025876977
-0.015291004 -0.025510179 -0.0024797532
-0.014605826 -0.025451535 -0.0024372148
0.01470631 -0.025540121 -0.0024591456
0.015321034 -0.025470221 -0.002589114
-0.015273464 -0.024496103 -0.0024641238
-0.014698274 -0.024552595 -0.0025318826
0.014742187 -0.024578739 -0.0025849272
0.015343152 -0.024478352 -0.0025787055
-0.01531786 -0.023496926 -0.0024749988
-0.014628749 -0.023481762 -0.0025481824
0.014730815 -0.023534438 -0.0025252788
0.015339999 -0.023548769 -0.0025213633
-0.015303323 -0.022456991 -0.0024822115
-0.014612744 -0.022380663 -0.0025486294
0.014671844 -0.022443548 -0.0025059376
0.015305251 -0.022561358 -0.0025525191
-0.015320552 -0.021488547 -0.0024427518
-0.014633683 -0.021511685 -0.0025072282
0.014711229 -0.021440126 -0.0025050824
0.01534792 -0.021560373 -0.0025109765
-0.015288401 -0.020476973 -0.0024938339
-0.014656594 -0.020450905 -0.0025541221
0.014700496 -0.020396318 -0.0024140563
0.015320685 -0.020526083 -0.0024973191
-0.015349964 -0.01946253 -0.0025006195
-0.014696186 -0.019438373 -0.0025195917
0.014646259 -0.019404607 -0.0023894687
0.015335935 -0.019456832 -0.0025067187
-0.015320419 -0.018412359 -0.0024982363
-0.014643176 -0.01851075 -0.0026258568
0.014745999 -0.018456422 -0.0024032649
0.015343776 -0.018489845 -0.0024829954
-0.015325381 -0.017415717 -0.0024706165
-0.014655798 -0.017509183 -0.0026078634
0.014718964 -0.017435385 -0.0024388456
0.015343698 -0.017457167 -0.0024558739
-0.015311199 -0.016501332 -0.0025166001
-0.01464232 -0.016554285 -0.0025545177
0.014708983 -0.016512774 -0.0024232343
0.015345422 -0.016463811 -0.0024832548
-0.015337196 -0.015507133 -0.0024232836
-0.014653416 -0.01561964 -0.0025382065
0.01469925 -0.015429972 -0.0024888851
0.015331429 -0.015582947 -0.0024987676
-0.015338462 -0.014481775 -0.0024938923
-0.014680649 -0.014570571 -0.0026250109
0.014778751 -0.014431003 -0.0025260497
0.015351496 -0.014518864 -0.0024784661
-0.015268802 -0.013452354 -0.0024596893
-0.01470759 -0.013545271 -0.0025317073
0.014659134 -0.013445187 -0.0025252211
0.015343856 -0.013494045 -0.0025185801
-0.015329733 -0.012423557 -0.0025108263
-0.01469731 -0.012593821 -0.0025376249
0.014686616 -0.012453952 -0.0024657408
0.015384435 -0.012454633 -0.002473739
-0.015319399 -0.011396543 -0.0024847367
-0.01465029 -0.011581661 -0.0025088456
0.01464119 -0.011493527 -0.0025491002
0.01535334 -0.01141503 -0.0024722621
-0.015324856 -0.010457573 -0.0025350749
-0.014682027 -0.010545201 -0.0025057786
0.014651426 -0.010517292 -0.0026454111
0.015338222 -0.01050452 -0.0024848077
-0.015361206 -0.0094830524 -0.0025639676
-0.014666885 -0.0094662979 -0.0024915517
0.014672985 -0.0094944118 -0.0025953793
0.015320819 -0.0095197363 -0.0025577638
-0.015284227 -0.0085419556 -0.002528751
-0.014635727 -0.0084678316 -0.0025471763
0.014614781 -0.0084848842 -0.0026228053
0.015295317 -0.0084025487 -0.0025420836
-0.015324031 -0.0074910559 -0.0025461472
-0.014668968 -0.0074431747 -0.0025631364
0.01470107 -0.0075041554 -0.0025925729
0.015315346 -0.0074414983 -0.0025279014
-0.01527632 -0.0064826459 -0.0025521694
-0.014689879 -0.0063793371 -0.002538654
0.014679987 -0.0064059072 -0.0025986761
0.01532264 -0.006403185 -0.0025850604
-0.015326742 -0.0054288264 -0.0025789333
-0.014627491 -0.0053657573 -0.0025314719
0.014658028 -0.0054425322 -0.0025759554
0.015269911 -0.0055225235 -0.0025167495
-0.015327464 -0.0045112022 -0.0025284842
-0.014640985 -0.0044616912 -0.0026596778
0.014726433 -0.0045157038 -0.0025392876
0.015333214 -0.0045384006 -0.0025184241
-0.015312508 -0.0034296769 -0.0025321362
-0.014633967 -0.0035302732 -0.0025711907
0.014659214 -0.0034793534 -0.0025615874
0.015388294 -0.0035150845 -0.0025604523
-0.015336066 -0.0025510336 -0.0025941031
-0.014667368 -0.0026311926 -0.0025660882
0.014651623 -0.0024342411 -0.0025601974
0.015362697 -0.0025301469 -0.0026249466
-0.015297014 -0.0016271609 -0.0025335739
-0.01464193 -0.0016160909 -0.0025764212
0.014710254 -0.0015710251 -0.0025803437
0.015374992 -0.0016307847 -0.0025712259
-0.015308803 -0.00048814042 -0.0025500541
-0.01463182 -0.00048614587 -0.0025645425
0.014690734 -0.0005232445 -0.0025474916
0.015333611 -0.00048916723 -0.0025633066
-0.015375659 0.00057982921 -0.0024424354
-0.014631348 0.00057204277 -0.0026046718
0.014646989 0.00056980684 -0.0025983481
0.015383258 0.00056871725 -0.002543174
-0.015305502 0.0014217605 -0.0024912742
-0.01462251 0.0015659131 -0.0025604691
0.014701836 0.0014848585 -0.0024949557
0.015325359 0.0015363276 -0.0025029047
-0.01534695 0.0024746037 -0.0024612851
-0.014646117 0.002541404 -0.0026076843
0.014657286 0.0025098124 -0.0025073115
0.015320406 0.002543763 -0.0025187689
-0.015339729 0.0035279936 -0.0024894075
-0.014632488 0.0035397343 -0.002620162
0.014732726 0.0035121334 -0.0025089227
0.015361113 0.0035620325 -0.0024992418
-0.015274229 0.0045015309 -0.0025048763
-0.014634224 0.0045212298 -0.0026092459
0.014671579 0.0045321803 -0.002586528
0.015342682 0.0044434909 -0.0025663481
-0.015368234 0.005490528 -0.0024965398
-0.014633382 0.0054658884 -0.0026231266
0.014718265 0.0054791193 -0.0025284216
0.015334622 0.0054375445 -0.002545384
-0.015309026 0.0064948038 -0.0025864711
-0.014653769 0.0065380307 -0.0026243711
0.0147315 0.0065285661 -0.0025054272
0.015343667 0.0064638592 -0.0025794441
-0.015301873 0.0075294334 -0.0024734593
-0.014613957 0.0075325547 -0.002643828
0.014718611 0.0075133648 -0.0025813815
0.015333558 0.007510216 -0.0025562225
-0.015358899 0.0085880673 -0.0025040223
-0.014652885 0.0084974896 -0.0026524486
0.014727754 0.0084913783 -0.0025872819
0.015361082 0.0085310424 -0.0025745735
-0.015284803 0.0095665986 -0.0024591899
-0.014670432 0.0094857877 -0.0026609383
0.014675546 0.0094016809 -0.002537068
0.015361491 0.0095176315 -0.0025927119
-0.015278729 0.010531909 -0.0024946602
-0.014645344 0.010522552 -0.0026495352
0.014642575 0.010453895 -0.0025894349
0.015300512 0.010514611 -0.0026132613
-0.015289105 0.011530473 -0.0024389476
-0.01473544 0.011549912 -0.0026494516
0.014644681 0.011505043 -0.002526741
0.015361158 0.011544437 -0.0026247129
-0.015320731 0.012463173 -0.0024737325
-0.014671762 0.012484144 -0.0026088599
0.014665754 0.012527596 -0.0025882577
0.015377822 0.012510523 -0.0025935583
-0.015268304 0.013545174 -0.0025507053
-0.014694417 0.01350748 -0.0025526844
0.014697197 0.01358469 -0.0026151936
0.01534274 0.013546313 -0.0025285117
-0.015277889 0.014481159 -0.0025287818
-0.014672721 0.014494867 -0.0025272362
0.014639689 0.014379213 -0.0025209687
0.015320006 0.014504793 -0.0024916662
-0.015366772 0.015525936 -0.0025449286
-0.014636538 0.015497402 -0.0025130855
0.014658008 0.015411012 -0.0025488501
0.01540239 0.015480577 -0.0025545359
-0.015330133 0.016583422 -0.0025668577
-0.014669695 0.016483393 -0.0025621206
0.014667686 0.016423119 -0.0025165929
0.015380082 0.016612845 -0.0024815225
-0.015312672 0.01755644 -0.0024308481
-0.014664325 0.017457224 -0.0025126138
0.014675266 0.017468842 -0.0025490879
0.015338137 0.017499529 -0.0024825719
-0.015328838 0.018515402 -0.0024956097
-0.014657569 0.018461537 -0.0024977536
0.014683867 0.018548768 -0.0024900823
0.015373814 0.018475847 -0.002465202
-0.015308818 0.01946968 -0.0024131828
-0.014656768 0.019529833 -0.0024792654
0.014672297 0.019561766 -0.0024648779
0.015326859 0.019414574 -0.0024844788
-0.015312865 0.020488702 -0.0024731003
-0.014658335 0.020481631 -0.0025634954
0.014676244 0.020552304 -0.0024744701
0.01530479 0.020499365 -0.0024955452
-0.015368681 0.021544641 -0.0025354929
-0.014709031 0.021490369 -0.0025763013
0.014677733 0.021565234 -0.0024298185
0.015322871 0.021547262 -0.0025283489
-0.01530071 0.022553004 -0.0024918804
-0.014686236 0.022473887 -0.0025219866
0.014667638 0.02252515 -0.0024984961
0.01536579 0.022557717 -0.0024844764
-0.015276168 0.023414154 -0.002512289
-0.014663935 0.023519279 -0.0025001757
0.014700654 0.023523912 -0.0023859222
0.015338521 0.023552541 -0.0024997394
-0.016013891 0.024636805 -0.0027343631
-0.015288657 0.024468046 -0.0025354407
-0.014689732 0.024451131 -0.0025637902
0.014669262 0.024480529 -0.0023592648
0.01532861 0.024479505 -0.0024764657
-0.015333267 0.025534377 -0.0024290446
-0.014659639 0.025459273 -0.0025026365
0.014697822 0.025506604 -0.0023881409
0.015388823 0.025468057 -0.0024996651
-0.015294282 0.026487911 -0.0024470773
-0.014697175 0.026504528 -0.0025574362
0.014726913 0.026464624 -0.0024818331
0.015278721 0.026394406 -0.0025002523
-0.015303878 0.027425289 -0.002375409
-0.014669287 0.027476216 -0.0025288633
0.014711789 0.027462544 -0.0025211161
0.015334328 0.027445791 -0.0025678154
-0.015256003 0.028503574 -0.0024229372
-0.014685909 0.028487854 -0.0025433865
0.014715142 0.028471647 -0.0025112764
0.01537295 0.028478747 -0.0024452235
-0.015336454 0.029612642 -0.002500643
-0.014629302 0.029511109 -0.0025456049
-0.013420582 0.029999733 -0.0026095533
-0.012674987 0.029999733 -0.0026095533
-0.011556581 0.029999793 -0.0026095533
-0.010438234 0.029999793 -0.0026095533
-0.0096926093 0.029999733 -0.0026095533
-0.0085742474 0.029999733 -0.0026095533
-0.0074558258 0.029999733 -0.0026095533
-0.0067102611 0.029999793 -0.0026095533
-0.0055918992 0.029999733 -0.0026095533
-0.0044735074 0.029999733 -0.0026095533
-0.0037279427 0.029999733 -0.0026095533
-0.0026095361 0.029999793 -0.0026095533
-0.001491189 0.029999733 -0.0026095533
-0.0007455647 0.029999793 -0.0026095533
0.00037279725 0.029999763 -0.0026095533
0.001491189 0.029999793 -0.0026095533
0.002609551 0.029999793 -0.0026095533
0.0037279427 0.029999733 -0.0026095533
0.0044735372 0.029999793 -0.0026095533
0.005591929 0.029999793 -0.0026095533
0.0067102909 0.029999852 -0.0026095533
0.0074559152 0.029999733 -0.0026095533
0.0085742474 0.029999733 -0.0026095533
0.0096926987 0.029999793 -0.0026095533
0.010438204 0.029999793 -0.0026095533
0.011556596 0.029999793 -0.0026095533
0.012674987 0.029999733 -0.0026095533
0.013420582 0.029999733 -0.0026095533
0.014686675 0.029545272 -0.0025429951
0.015362735 0.029584128 -0.0025746054
-0.015252527 0.030312849 -0.0024769008
-0.014520321 0.030268995 -0.0024431469
-0.013511023 0.030262765 -0.0024735793
-0.012548243 0.030268257 -0.0025528765
-0.011509521 0.030282749 -0.0024482657
-0.010461017 0.030263567 -0.0024990661
-0.0094255907 0.030250113 -0.0024459083
-0.008488154 0.030298069 -0.0025023518
-0.0074970764 0.030258428 -0.0025060317
-0.0064717829 0.030251911 -0.0024933803
-0.0054653799 0.030283518 -0.0024980463
-0.0044757999 0.030263646 -0.0024622923
-0.0035286027 0.030284083 -0.0024822794
-0.0024535514 0.03027666 -0.0024686537
-0.001528505 0.030251404 -0.0024284536
-0.00047877355 0.030268388 -0.0024368775
0.00047888473 0.030277904 -0.0024723255
0.0015287759 0.030251423 -0.0024283831
0.0024536378 0.030276624 -0.0024686197
0.0035287247 0.030284081 -0.0024822503
0.0044759396 0.03026369 -0.0024622462
0.0054650288 0.03028354 -0.002497412
0.0064719617 0.030251916 -0.0024933908
0.0074971179 0.030258443 -0.0025060819
0.0084883459 0.030298056 -0.0025023995
0.0094256476 0.030250119 -0.0024459406
0.010461003 0.03026356 -0.002499064
0.011509567 0.030282754 -0.0024482508
0.012548274 0.030268209 -0.0025529128
0.013511055 0.030262735 -0.0024735685
0.01449634 0.030270947 -0.0024475995
0.015278615 0.030274047 -0.0025780029
-0.0152662 -0.029541355 -0.0015849976
-0.014496286 -0.029676091 -0.0014615447
-0.01351748 -0.029725125 -0.0015089499
-0.012478854 -0.029759876 -0.0014954185
-0.011495007 -0.029729832 -0.0014988848
-0.010508859 -0.029723162 -0.0014701644
-0.0094740987 -0.02973108 -0.0015081296
-0.0085738041 -0.029750101 -0.001477016
-0.0074974117 -0.029748162 -0.0015440662
-0.0064942888 -0.029727444 -0.0015184367
-0.005475306 -0.029730294 -0.0015282397
-0.0045184824 -0.029739164 -0.0014929113
-0.0035425557 -0.029748961 -0.0015107923
-0.0024890956 -0.029746152 -0.0014432839
-0.0015191018 -0.029728331 -0.0015314817
-0.00053516758 -0.029754775 -0.0015203748
0.00049513357 -0.029761653 -0.0015195679
0.001518912 -0.029728375 -0.0015314465
0.002489188 -0.029746244 -0.0014431998
0.0035425676 -0.029748999 -0.0015107805
0.0045183958 -0.029739086 -0.0014928238
0.0054753334 -0.029730281 -0.0015282418
0.0064944001 -0.02972747 -0.0015184494
0.0074973349 -0.029748168 -0.0015440951
0.0085737593 -0.029750077 -0.0014769564
0.0094741406 -0.029731091 -0.0015080568
0.010508801 -0.029723158 -0.0014700535
0.011495053 -0.029729849 -0.0014989842
0.012478832 -0.029759834 -0.0014954052
0.013517476 -0.029725105 -0.0015089712
0.014458057 -0.029605201 -0.0015089181
0.015271113 -0.029494133 -0.0016007177
-0.01526907 -0.028539553 -0.0015778865
-0.014660891 -0.028470566 -0.0013634877
0.014694641 -0.028458765 -0.0014291846
0.015306456 -0.028533092 -0.0015480644
-0.015324074 -0.027512733 -0.0015729374
-0.014669208 -0.027403951 -0.0014357177
0.01463767 -0.027492361 -0.0014515682
0.015309434 -0.02751055 -0.0015615546
-0.015325074 -0.026470833 -0.0015659371
-0.014664226 -0.026558293 -0.0014103273
0.014683842 -0.026440876 -0.0015369816
0.015313761 -0.026455434 -0.0015415275
-0.015343142 -0.025456695 -0.0015802768
-0.014719556 -0.025512921 -0.001483536
0.014651518 -0.025407925 -0.0015701322
0.015345736 -0.025406178 -0.0016061738
-0.015353137 -0.024563681 -0.0015837466
-0.014735306 -0.024584953 -0.0015501748
0.013993189 -0.024072647 -0.0014324188
0.014711301 -0.024489976 -0.0016933099
0.015349497 -0.024505412 -0.0015471977
-0.015296091 -0.023605736 -0.0015796896
-0.01467488 -0.023591978 -0.0016162246
0.014625587 -0.023500646 -0.0016008765
0.015352617 -0.023460947 -0.0015168973
-0.015300531 -0.022552809 -0.0015031757
-0.014657681 -0.02260646 -0.001575357
0.01467416 -0.022403324 -0.0016372979
0.015332209 -0.022450959 -0.0015370995
-0.015320691 -0.021506175 -0.0015670651
-0.014710979 -0.021567969 -0.0015033394
0.014600138 -0.021436598 -0.0015983656
0.015335858 -0.021451436 -0.0015140304
-0.015327837 -0.020512467 -0.0015151721
-0.014662385 -0.020610392 -0.0014916779
0.014753303 -0.020599669 -0.0015428793
0.015325271 -0.020487105 -0.0015199631
-0.015350844 -0.019502591 -0.0015661605
-0.01463704 -0.019468464 -0.0015226776
0.014640396 -0.019591419 -0.001466089
0.01533889 -0.019514011 -0.0015131546
-0.015289554 -0.018554054 -0.0015121326
-0.014732231 -0.018564941 -0.0016245035
0.014663499 -0.018503631 -0.0016385537
0.015355051 -0.018395059 -0.0014904427
-0.015348624 -0.017523704 -0.0015093498
-0.014596922 -0.017579772 -0.0016244898
0.014660256 -0.017524475 -0.0015170616
0.015288917 -0.017424952 -0.0015609942
-0.015360069 -0.016537163 -0.0015715405
-0.014697563 -0.016639858 -0.0015204721
0.01466527 -0.01655527 -0.0015060594
0.015354161 -0.016541129 -0.0015190698
-0.015290867 -0.015601831 -0.0015409979
-0.014637642 -0.015582701 -0.0015869542
0.014595109 -0.0156419 -0.0015848232
0.015344753 -0.015502676 -0.0015315786
-0.015279064 -0.014509507 -0.0015367058
-0.014649061 -0.014430653 -0.00161122
0.014694264 -0.014634075 -0.0016522768
0.015347173 -0.014518181 -0.0014971904
-0.015331918 -0.013522362 -0.0015083306
-0.01465188 -0.013461515 -0.0014440194
0.014733416 -0.01350771 -0.0015561784
0.015296462 -0.013486441 -0.0015510283
-0.015317275 -0.012455602 -0.001563792
-0.014649411 -0.012417648 -0.0015637164
0.014665703 -0.012478918 -0.0015968427
0.015276944 -0.012388703 -0.0015264641
-0.015361777 -0.011428448 -0.0016129989
-0.014631877 -0.01149941 -0.0015003579
0.014691346 -0.011438796 -0.0015300172
0.015302713 -0.011433102 -0.0015779616
-0.015299564 -0.01043758 -0.0015660018
-0.014667949 -0.010567582 -0.0014825367
0.014650352 -0.010477663 -0.0016259819
0.015320361 -0.010460212 -0.0015151963
-0.015335998 -0.0095035527 -0.0016025581
-0.014677713 -0.0095427912 -0.0015033006
0.014679003 -0.0095802294 -0.0015481228
0.015358261 -0.0094804037 -0.0016240383
-0.015311813 -0.00848311 -0.0015879124
-0.014706765 -0.0086104274 -0.0014750432
0.014673619 -0.0086099664 -0.0015605028
0.015345892 -0.0085694967 -0.0015391267
-0.01532614 -0.0075040921 -0.0016061877
-0.014618508 -0.0075562475 -0.0014649491
0.014633382 -0.0075510507 -0.0015202825
0.015333205 -0.0075200899 -0.0014739849
-0.015323944 -0.0064758449 -0.0015807839
-0.014647234 -0.0064947531 -0.0015120263
0.014668795 -0.0064647454 -0.0014768952
0.015332028 -0.006558849 -0.0015586723
-0.015298401 -0.0054049296 -0.001493944
-0.014653283 -0.0055902638 -0.0014318047
0.01465823 -0.005404958 -0.0014693284
0.015364336 -0.0055424669 -0.0015192635
-0.015358884 -0.0043035764 -0.0015087656
-0.014652121 -0.0045190915 -0.0015116726
0.014649257 -0.0044297553 -0.001450101
0.015328943 -0.0045032185 -0.0015086941
-0.015344835 -0.0034065817 -0.0015076735
-0.014625473 -0.0035308483 -0.0015514352
0.01462931 -0.0034538778 -0.0015290712
0.015257308 -0.0034335656 -0.0014636982
-0.015292625 -0.0024429061 -0.0015658833
-0.014632174 -0.0025215307 -0.0015103422
0.014701214 -0.0025557333 -0.0014836774
0.015314999 -0.0025238164 -0.0015686781
-0.015403114 -0.0014822538 -0.0015266259
-0.014643089 -0.0014697228 -0.0015988066
0.014685854 -0.0015554156 -0.0015494227
0.01530077 -0.0015387448 -0.001495719
-0.015365605 -0.00049147854 -0.0016098899
-0.014652268 -0.00048970705 -0.00159292
0.014711993 -0.00046876832 -0.0016127873
0.015330712 -0.00046293749 -0.0014923165
-0.015354407 0.00048277411 -0.0015507956
-0.014624282 0.00055847928 -0.0015921004
0.014690802 0.00059927354 -0.0016087615
0.015298018 0.0006383853 -0.0014779894
-0.015357256 0.0015398577 -0.0015379047
-0.014682748 0.0015570058 -0.0016374165
0.014686657 0.0015114327 -0.0015938613
0.01533284 0.0016151003 -0.0014447846
-0.015339176 0.0024817404 -0.0015881268
-0.014631962 0.0025369674 -0.0016692586
0.014692426 0.0024479176 -0.0015945622
0.015330611 0.0025729151 -0.0014413595
-0.015376394 0.0034000163 -0.0015032078
-0.014685529 0.003473616 -0.0016393057
0.014661515 0.0034923207 -0.0015598706
0.015293545 0.0035012034 -0.0014685153
-0.015338384 0.0044465223 -0.0015562342
-0.014697428 0.0045545809 -0.0016308004
0.014644329 0.0044863415 -0.001581002
0.015364764 0.0044528353 -0.0014562822
-0.015295994 0.0054249256 -0.001462414
-0.014707098 0.0055498122 -0.0016154468
0.014652843 0.0054844464 -0.001492041
0.01537382 0.0054631466 -0.0014575943
-0.01533103 0.0064437967 -0.0014948727
-0.014721102 0.0065204897 -0.0016190183
0.014639969 0.006542427 -0.0015072232
0.015304238 0.006395909 -0.0015537143
-0.015362858 0.0075759711 -0.0014606342
-0.014681775 0.0075021964 -0.0016210817
0.0146668 0.007590292 -0.0015309876
0.015300872 0.0073945406 -0.0014533219
-0.015353394 0.0086108083 -0.0014378332
-0.014687479 0.0085874954 -0.0016111318
0.014632871 0.0085739037 -0.0014751032
0.015360693 0.0085385125 -0.0015057928
-0.015387537 0.0094931647 -0.0015075115
-0.014703673 0.0096065868 -0.0015798532
0.014690092 0.0095699579 -0.0014226715
0.015304184 0.0096153626 -0.0014513679
-0.015310966 0.010588316 -0.0015384445
-0.01469365 0.010577461 -0.001523373
0.014661849 0.010480737 -0.0014595118
0.015319179 0.010562424 -0.0015137105
-0.015319392 0.011528099 -0.0015172111
-0.014658693 0.011453915 -0.0015067898
0.014703438 0.011450677 -0.0014668455
0.015333883 0.011480683 -0.0015743278
-0.015334053 0.012532715 -0.0016245866
-0.014663899 0.012422762 -0.001459563
0.014687885 0.012510603 -0.0015306427
0.015338225 0.012492708 -0.0015640557
-0.015300971 0.013525637 -0.0015833506
-0.014689195 0.013448065 -0.0015280169
0.014722854 0.013475621 -0.0015124544
0.015301564 0.013503248 -0.0015395348
-0.015283099 0.014512391 -0.0016258766
-0.014661447 0.014449121 -0.0014780605
0.014697664 0.014421728 -0.001574983
0.015332063 0.014505618 -0.0015394853
-0.015332229 0.01551314 -0.001564122
-0.014661449 0.015517091 -0.0015182139
0.014706017 0.015454101 -0.0015498867
0.015292849 0.015503024 -0.0015647659
-0.015335447 0.01657092 -0.0015381268
-0.014619724 0.016503958 -0.0015035031
0.014667269 0.016421776 -0.0015826932
0.015338559 0.016560886 -0.0015533033
-0.015276834 0.017543683 -0.0014865473
-0.014639613 0.017571138 -0.0015517551
0.014683824 0.01749834 -0.0015761919
0.015398367 0.017598458 -0.0014903088
-0.015322259 0.018529633 -0.0015402491
-0.014670298 0.018522199 -0.001504755
0.014669439 0.018545493 -0.0015141928
