# .PCD v0.7 - Point Cloud Data file format
VERSION 0.7
FIELDS x y z rgba
SIZE 4 4 4 4
TYPE F F F U
COUNT 1 1 1 1
WIDTH 1073
HEIGHT 1
VIEWPOINT 0 0 0 1 0 0 0
POINTS 1073
DATA ascii
-0.026689351 -0.0061490163 0.097495079 1580336
-0.026620924 -0.0068207309 0.097484551 1711923
-0.026681483 -0.0081305057 0.097481824 6316415
-0.02652818 -0.0094787553 0.097459219 5987187
-0.026302993 -0.01084125 0.097429939 5724278
-0.026310265 -0.012163289 0.097422235 5527414
-0.026033461 -0.013538092 0.097388141 5724530
-0.025723875 -0.014920801 0.097350977 5658737
-0.025373459 -0.016313106 0.097309999 5462646
-0.025042474 -0.017703891 0.097270839 5528440
-0.016466558 0.023329668 0.09543068 394854
-0.017029941 0.022741705 0.095479533 263008
-0.017475247 0.021479361 0.095512867 90
-0.018179119 0.020252213 0.095570646 86
-0.018633306 0.018993378 0.095604829 92
-0.019410014 0.017779469 0.095669508 132711
-0.019872725 0.016524337 0.095704518 621
-0.020650029 0.015314266 0.095769294 2167
-0.021105528 0.014060669 0.095803633 1656
-0.02175951 0.013495177 0.095861115 133499
-0.022509158 0.01228644 0.095923305 609
-0.022962868 0.011036351 0.095957503 54
-0.023473859 0.0097957402 0.095997132 298
-0.023969114 0.0085539147 0.096035279 287
-0.024574995 0.0073300898 0.096083894 28
-0.024992466 0.0060787126 0.096114703 28
-0.02527374 0.0054645911 0.096136972 26
-0.025614798 0.004202567 0.096160546 23
-0.025908768 0.0029335767 0.096179679 37
-0.026152611 0.0016568527 0.096194051 1515054
-0.026347995 0.00037239492 0.096203849 1317935
-0.026481688 -0.00092225522 0.096207798 1382455
-0.026568592 -0.0022249892 0.096207313 1645112
-0.026614785 -0.0035350248 0.096202955 1316913
-0.02662617 -0.004851602 0.096195318 2435648
-0.026577711 -0.0055194497 0.09618637 2369855
-0.0266155 -0.0068326518 0.096181206 2435905
-0.026675403 -0.008142598 0.096178144 6381945
-0.026521742 -0.0094909742 0.096154839 5921394
-0.026296675 -0.010853514 0.096124753 5855864
-0.026303411 -0.012175702 0.09611664 5461882
-0.026028454 -0.013550237 0.096081801 5659000
-0.02572 -0.014932796 0.096043773 5724279
-0.025687635 -0.016265705 0.096031919 5462133
-0.025336623 -0.017659724 0.095989838 5725306
-0.016512215 0.023325562 0.094122209 197729
-0.016837478 0.022706971 0.094148986 92
-0.017500758 0.0214727 0.094203778 88
-0.018189192 0.020243503 0.094261006 131160
-0.018639922 0.018984191 0.094295338 65630
-0.019399881 0.017767973 0.094359487 1383
-0.019860387 0.016512468 0.094394773 1905
-0.020626068 0.015300713 0.094459482 67958
-0.021080673 0.014046893 0.094494224 396671
-0.021728158 0.013480432 0.094552115 265339
-0.022474766 0.012271158 0.094615042 862
-0.022929132 0.011021063 0.094649784 52
-0.02344209 0.0097806305 0.094690181 298
-0.023938894 0.008538954 0.094729029 287
-0.024548829 0.0073156357 0.094778799 28
-0.02496618 0.0060641468 0.094809994 26
-0.025246263 0.0054498017 0.094832495 20
-0.025588691 0.0041878968 0.094856463 24
-0.025884151 0.0029190406 0.094875902 65568
-0.02613008 0.0016425699 0.094890565 1253165
-0.026326001 0.00035811216 0.094900392 1712184
-0.026462495 -0.0009361878 0.094904475 1447731
-0.026551485 -0.0022386461 0.094903968 1579571
-0.026599467 -0.0035484582 0.094899513 1711157
-0.02661258 -0.0048648193 0.09489166 2171456
-0.026567519 -0.0055321231 0.094882756 2303812
-0.026611805 -0.0068442598 0.094877914 2765131
-0.026478469 -0.0081881732 0.094855905 6120054
-0.026516259 -0.0095030218 0.094850428 5986937
-0.026290536 -0.010865748 0.094819471 5855864
-0.026032209 -0.012236036 0.09478534 5462133
-0.026021838 -0.013562679 0.094775192 5527669
-0.025714219 -0.014945149 0.094736263 5526899
-0.025681317 -0.016278222 0.094723925 5396594
-0.025332272 -0.017671943 0.094680972 5462134
-0.017088652 0.02272936 0.092861213 197475
-0.017525434 0.021465927 0.092894621 88
-0.018195331 0.020234279 0.092950933 131160
-0.018642008 0.018974386 0.092985317 350
-0.019382536 0.017755486 0.09304861 264299
-0.01984036 0.016499534 0.093084119 1903
-0.020591915 0.015285723 0.093148515 1397
-0.021045506 0.014031656 0.093183622 67706
-0.021684885 0.013463981 0.093241736 396923
-0.02242738 0.012254 0.093305282 855
-0.022886336 0.01100444 0.093340948 305
-0.02340126 0.0097641796 0.093382128 298
-0.024065673 0.008547619 0.093438022 30
-0.024513423 0.0072997808 0.093472607 28
-0.024931073 0.0060482174 0.093504235 282
-0.025210321 0.0054336935 0.093526982 24
-0.025554597 0.0041719601 0.093551397 28
-0.025852203 0.0029033422 0.093571216 1382188
-0.026100695 0.0016271695 0.093586221 1318705
-0.026299953 0.00034315139 0.093596362 1514546
-0.026440203 -0.00095061213 0.093600683 1317164
-0.026532054 -0.002252683 0.093600266 1448751
-0.026584268 -0.0035618767 0.093595907 1382710
-0.026600838 -0.0048777163 0.093588062 2040387
-0.026559114 -0.0055444986 0.093579195 1975107
-0.026430249 -0.0068867505 0.093556985 2634062
-0.026477635 -0.008199349 0.093552157 6317185
-0.026515245 -0.0095142722 0.093546353 5921398
-0.026291609 -0.010876685 0.093514785 5855865
-0.026036203 -0.01224649 0.093480065 5527669
-0.026026368 -0.01357308 0.09346956 5659513
-0.025722921 -0.014954835 0.093430087 5724793
-0.025690556 -0.016287833 0.093417346 5528180
-0.025346637 -0.01768063 0.093373857 5791099
-0.017093003 0.022724934 0.092205614 394854
-0.017729044 0.021487534 0.092258997 86
-0.018429756 0.02025532 0.091663651 86
-0.018631101 0.018962838 0.091673933 349
-0.019352853 0.017741315 0.091736346 613
-0.01980859 0.016484983 0.091772117 1646
-0.020547569 0.015269302 0.091836289 1140
-0.021000743 0.014015064 0.09187182 396671
-0.021633804 0.013446428 0.09193033 133238
-0.022090137 0.012194827 0.091966197 603
-0.022838235 0.010987036 0.092031315 46
-0.02335614 0.009747088 0.092073388 296
-0.023857236 0.0085058063 0.092113771 288
-0.024333358 0.0072618499 0.092151664 28
-0.024893701 0.0060319453 0.092198022 26
-0.025172472 0.0054172873 0.092221059 26
-0.025518656 0.0041557401 0.092245929 34
-0.025820255 0.0028876439 0.092266329 1448236
-0.026072025 0.0016118884 0.092281736 857388
-0.026273727 0.00032816827 0.092292123 1316915
-0.026417851 -0.0009650588 0.092296727 1382190
-0.026512921 -0.0022666827 0.092296407 1515054
-0.026569366 -0.0035752431 0.092292197 1712182
-0.026589632 -0.0048905313 0.092284366 1975105
-0.026550233 -0.0055569485 0.09227547 2567242
-0.026428401 -0.006898053 0.092253342 2634317
-0.02647543 -0.0082107633 0.092248172 6120066
-0.026274204 -0.0095681176 0.092218056 6052984
-0.02629137 -0.010887861 0.092209868 5987451
-0.02603972 -0.01225704 0.092174672 5659255
-0.026030302 -0.013583601 0.092163801 5527927
-0.025732994 -0.014964268 0.092123985 5593720
-0.025701582 -0.016297117 0.092110895 5593971
-0.025366545 -0.017688259 0.092067249 5593971
-0.017096162 0.022715382 0.090893827 350
-0.017717898 0.021476083 0.090946577 88
-0.018161833 0.020214781 0.090981379 88
-0.018601954 0.018953882 0.091015786 66142
-0.019309163 0.017730303 0.091077209 1125
-0.01976335 0.016473643 0.091113083 67948
-0.020492733 0.015256517 0.091176771 2165
-0.020844281 0.014646843 0.091207296 199546
-0.021574318 0.013432778 0.091271088 659836
-0.022325099 0.01221858 0.09068419 65879
-0.022794425 0.010970265 0.090721875 65829
-0.023513138 0.009760052 0.090785041 288
-0.023988068 0.0085150898 0.090823323 26
-0.024441004 0.0072678104 0.090859368 26
-0.024860799 0.0060163513 0.090892024 26
-0.025139034 0.0054015592 0.090915345 24
-0.025487125 0.0041401982 0.090940677 65572
-0.025791228 0.0028723925 0.090961523 1908785
-0.026044071 0.001596719 0.09097714 1712685
-0.026246309 0.00031299144 0.090987571 1449000
-0.026394069 -0.000979729 0.090992436 1580588
-0.026492774 -0.0022808462 0.090992294 1908783
-0.026553214 -0.003588818 0.090988219 1842992
-0.026575446 -0.0049038604 0.090980232 1777725
-0.026537657 -0.0055700392 0.090971224 1712962
-0.02642256 -0.0069100484 0.090949178 2042440
-0.026243567 -0.0082624853 0.090920582 6186110
-0.026270032 -0.0095799416 0.090913005 5725046
-0.02628696 -0.010899775 0.090904452 5659255
-0.026040435 -0.012268096 0.090868905 5856116
-0.026031673 -0.013594583 0.0908577 5921396
-0.02574265 -0.014973775 0.090817779 6446972
-0.025712729 -0.016306385 0.090804391 5987187
-0.025389493 -0.017695323 0.090760939 5987440
-0.017103553 0.022706382 0.089582391 262490
-0.01771611 0.021465853 0.089634985 83
-0.018379986 0.020233676 0.089692868 86
-0.018596113 0.018943012 0.08970467 92
-0.019293129 0.017717987 0.089766003 611
-0.019746184 0.016461112 0.089802206 67178
-0.020468354 0.015242897 0.089866161 1649
-0.020819604 0.014633141 0.089897126 2165
-0.021545649 0.013418421 0.089961492 133492
-0.022002101 0.012166612 0.089998081 131925
-0.022753239 0.010959044 0.090065062 65819
-0.023275018 0.0097194463 0.09010841 28
-0.023779869 0.0084785074 0.090150028 24
-0.024259031 0.0072348118 0.09018901 23
-0.02482748 0.0060059503 0.0902372 278
-0.025104761 0.0053909719 0.090260595 277
-0.025464654 0.0041260943 0.089636169 327964
-0.025770187 0.0028584301 0.089657351 2170666
-0.026023567 0.0015827566 0.089673109 1842466
-0.026224613 0.00029873848 0.089683428 1776419
-0.026373327 -0.0009939149 0.089688286 1776938
-0.026474535 -0.0022946969 0.089688204 1776940
-0.02653718 -0.0036023781 0.089684084 1645878
-0.026560903 -0.0049172416 0.089675911 2369603
-0.026523352 -0.0055834204 0.089666672 2172483
-0.02641356 -0.0069225878 0.089644574 2502226
-0.026236117 -0.0082748234 0.08961542 6186110
-0.026262105 -0.0095924288 0.089607455 5921907
-0.026278675 -0.010912396 0.089598514 5790837
-0.02603817 -0.012279697 0.089562736 5525607
-0.026030004 -0.013606116 0.089551203 1179667
-0.025751412 -0.014983431 0.089511432 6047071
-0.025723398 -0.016315728 0.089497797 1707307
-0.025417447 -0.017701432 0.089455158 4273214
-0.017134368 0.022700399 0.088273339 394074
-0.017736495 0.021458514 0.088325612 86
-0.018388748 0.020224795 0.088383146 88
-0.018844843 0.018966384 0.08842013 66142
-0.019295692 0.01770822 0.088456579 1379
-0.0197469 0.016451046 0.088493071 67433
-0.020458817 0.015231356 0.088556916 1391
-0.020808816 0.014621399 0.088588223 1395
-0.021254182 0.013366468 0.08862412 198514
-0.021982431 0.012153462 0.088689707 393806
-0.022726715 0.010944806 0.088757008 655885
-0.023249507 0.0097052678 0.088801064 524303
-0.023755491 0.0084644184 0.088843375 26
-0.024235785 0.0072207898 0.08888299 24
-0.02480638 0.0059921816 0.088932097 131343
-0.025082588 0.0053769872 0.0889557 7
-0.025429547 0.0041152835 0.08898133 655373
-0.025735021 0.002847515 0.089002609 852488
-0.025988996 0.0015718564 0.089018479 590345
-0.02618891 0.00028757006 0.089028671 1051924
-0.026338875 -0.0010049716 0.089033619 1972776
-0.026442945 -0.0023053735 0.089033723 1907758
-0.026509523 -0.0036124736 0.089029901 1646904
-0.026547134 -0.0049305037 0.088371538 2172737
-0.026347816 -0.005624488 0.088344872 2304069
-0.026195645 -0.006971404 0.088317677 2963031
-0.02622968 -0.0082869902 0.088310234 5988218
-0.026255369 -0.0096047074 0.088301904 6184568
-0.02627188 -0.010924757 0.088292591 5790319
-0.026037991 -0.012290917 0.088256694 5919076
-0.026030838 -0.013617203 0.088244863 2424842
-0.025763273 -0.01499252 0.088205352 7751780
-0.025737584 -0.016324416 0.088191532 2625584
-0.025449693 -0.017706737 0.088149831 5125183
-0.017162621 0.022694081 0.086964041 393302
-0.017756402 0.021451116 0.087016173 86
-0.018398881 0.020216107 0.087073512 86
-0.018626809 0.018926978 0.087086633 347
-0.019300401 0.017698735 0.08714731 66661
-0.019749939 0.016441293 0.087184072 67182
-0.020453274 0.015220374 0.087247968 1908
-0.02080214 0.014610231 0.087279625 265337
-0.021246552 0.013355114 0.08731588 460146
-0.021968067 0.012141071 0.087381735 787537
-0.022705019 0.010931276 0.087449275 918281
-0.023228645 0.0096917823 0.087494023 1114120
-0.023735464 0.0084509701 0.087536983 26
-0.024365783 0.0072301626 0.087593168 20
-0.024668515 0.0059603751 0.087614335 131080
-0.025063634 0.0053635165 0.087650985 918020
-0.025407791 0.0041012913 0.087676577 1442308
-0.025712669 0.002833344 0.08769799 1310729
-0.02596575 0.0015574396 0.087713867 852237
-0.026164353 0.00027284771 0.087723911 524292
-0.026315093 -0.0010196567 0.087728828 524299
-0.026421428 -0.0023197681 0.087729007 2432558
-0.026488483 -0.003626883 0.087724961 1843762
-0.026515365 -0.0049413815 0.087716617 2172222
-0.026314855 -0.0056356117 0.087689549 2304069
-0.02617085 -0.006981194 0.087662898 3160408
-0.026204348 -0.0082969591 0.087655239 6119802
-0.02622956 -0.0096148327 0.087646693 6315902
-0.026245713 -0.010935016 0.087637164 5856112
-0.026019335 -0.012299888 0.087601647 5985128
-0.025772274 -0.013670206 0.087563902 2621455
-0.025770783 -0.015002444 0.086898737 7686500
-0.025747538 -0.016333893 0.086884752 2691118
-0.025479198 -0.017712563 0.086844243 5125183
-0.017347991 0.022708006 0.085671827 852041
-0.017784655 0.021444812 0.085707627 524358
-0.018414795 0.020208173 0.08576446 327750
-0.018865108 0.01894895 0.085801765 196694
-0.019309878 0.017689906 0.085838482 131682
-0.019756496 0.016432032 0.085875399 197224
-0.020448864 0.015209548 0.08593902 328048
-0.02079618 0.014599167 0.08597099 656245
-0.021239281 0.013343796 0.086007543 721006
-0.021688402 0.012090221 0.086044781 917840
-0.022423089 0.010879524 0.086113065 984076
-0.023205221 0.0096779019 0.086186513 1179660
-0.023713171 0.008437179 0.086230189 28
-0.024345815 0.0072166398 0.086287424 24
-0.024770319 0.0059655979 0.086322032 262158
-0.02504462 0.0053500235 0.08634609 983043
-0.025386274 0.0040873289 0.08637169 1507330
-0.025690973 0.0028192624 0.086393259 2232861
-0.025943458 0.0015431792 0.086409174 2431281
-0.026141644 0.00025843084 0.086419165 262151
-0.026295304 -0.0010336861 0.086424299 1114379
-0.026404381 -0.0023334324 0.086424589 1443096
-0.026473701 -0.0036402419 0.086420543 2039340
-0.026400805 -0.004312098 0.086406805 1712172
-0.026299357 -0.005649209 0.08638414 2172473
-0.026367486 -0.0069580376 0.086379945 2831178
-0.026195943 -0.0083094612 0.086349629 6120313
-0.026220441 -0.0096275359 0.086340658 6118775
-0.026235938 -0.010947898 0.086330712 5855855
-0.026013434 -0.012312151 0.086294807 5919338
-0.025773644 -0.013681203 0.086256996 2359317
-0.025760591 -0.015009969 0.086243905 7292002
-0.025738478 -0.016341269 0.086229816 2889009
-0.025484622 -0.017717242 0.08619044 5256769
-0.017244518 0.022684716 0.084348314 3212610
-0.017816067 0.021438926 0.084399447 3933762
-0.018434465 0.020200744 0.084455773 2752562
-0.018675506 0.018913358 0.084470429 1376325
-0.019324005 0.01768171 0.084530108 787292
-0.019768655 0.016423546 0.084567264 721242
-0.020209193 0.015165724 0.08460398 1441869
-0.020797551 0.014589131 0.084663041 2032975
-0.02123934 0.013333537 0.084699914 1966419
-0.021681368 0.012078881 0.084736824 1703997
-0.022407353 0.010866858 0.084805161 1048586
-0.02296406 0.0096316263 0.084854759 1048586
-0.023697734 0.0084244236 0.084923968 26
-0.024181128 0.0071810409 0.084965505 24
-0.024656117 0.0065955818 0.085012093 65556
-0.025030673 0.0053373277 0.085041597 1048836
-0.025369585 0.004074119 0.085067146 1769732
-0.025673389 0.0028058439 0.085088827 1969178
-0.025927424 0.001529932 0.085104994 2299434
-0.026125073 0.00024501234 0.085114919 589830
-0.026279688 -0.0010470152 0.085120082 1310983
-0.026391566 -0.0023463741 0.085120492 1640215
-0.02646327 -0.0036528632 0.085116461 2301742
-0.026392162 -0.0043244511 0.085102588 2170926
-0.026289344 -0.0056618601 0.085079193 2565688
-0.026361883 -0.0069700032 0.085075229 3290189
-0.026404917 -0.0082838163 0.085067995 6514812
-0.026436388 -0.0096002892 0.085059471 6052717
-0.026231587 -0.010959819 0.085024737 5986158
-0.026013434 -0.012323342 0.084988505 6313066
-0.025780201 -0.013691247 0.084950574 2424853
-0.02576834 -0.015019834 0.084937215 7029605
-0.025747657 -0.016350895 0.08492285 3283508
-0.025504351 -0.017724916 0.084883779 5454150
-0.01726526 0.022677429 0.083038263 3080249
-0.017831266 0.02143091 0.083089463 3473471
-0.018261731 0.020167783 0.083125465 3211309
-0.018688619 0.018905036 0.083161056 2162745
-0.019331515 0.017672613 0.083220951 1967448
-0.019775391 0.016414315 0.083258487 2885714
-0.020215333 0.015156373 0.083295569 3802174
-0.020799994 0.014579251 0.083355136 4854602
-0.021241426 0.013323568 0.083392411 3606855
-0.021677673 0.012068041 0.08342912 2622001
-0.022150576 0.010818779 0.083469957 2098194
-0.022958457 0.0096204057 0.083548501 917768
-0.023696363 0.0084137842 0.083619185 21
-0.024181604 0.0071706399 0.083661452 277
-0.024659693 0.0065856352 0.083709098 12
-0.025033355 0.0053272098 0.083738826 589824
-0.025369942 0.0040635988 0.083764382 983040
-0.025672615 0.0027950928 0.083786123 1969689
-0.025927842 0.0015193224 0.083802514 720903
-0.026124537 0.00023421645 0.083812334 1114370
-0.026279628 -0.0010577887 0.083817452 1179657
-0.026392281 -0.0023570582 0.083817787 2496032
-0.026464403 -0.0036635324 0.083813533 2893101
-0.026254296 -0.0043587461 0.083783679 985103
-0.026283205 -0.005673863 0.083774552 918279
-0.02635473 -0.0069822222 0.08377023 3223095
-0.026396275 -0.0082963631 0.083762519 6513015
-0.026425958 -0.0096132234 0.083753474 2562604
-0.026217341 -0.010973513 0.083717532 2559258
-0.025996566 -0.012337595 0.083680205 6768743
-0.025761962 -0.013705835 0.083641298 2752539
-0.025748909 -0.01503472 0.08362738 7226725
-0.025727272 -0.01636605 0.083612502 2888750
-0.025384486 -0.017094493 0.08356756 1638407
-0.024995804 -0.018497512 0.083511211 7562880
-0.017282844 0.02266974 0.081727825 3145778
-0.017846763 0.021422945 0.081779495 2687032
-0.018277287 0.020159803 0.081815913 3014693
-0.018703699 0.018896982 0.081851877 3081014
-0.019344807 0.017664298 0.081912391 3214166
-0.019788325 0.01640594 0.081950329 3342405
-0.020227969 0.015147939 0.081987835 3539006
-0.0208112 0.014570601 0.082048148 3605574
-0.021252334 0.013314858 0.082085833 2622288
-0.021688223 0.012059256 0.082122952 2163259
-0.022155404 0.010809131 0.082163639 1901578
-0.022965312 0.0096110329 0.082243554 851975
-0.023704708 0.0084046125 0.082315423 65554
-0.024190545 0.0071615353 0.082358293 272
-0.024544954 0.0065575242 0.082392491 10
-0.025042236 0.0053180531 0.082436688 786434
-0.025375247 0.0040538535 0.082462087 1442315
-0.025676072 0.002785027 0.082483813 1704725
-0.025930762 0.00150913 0.082500242 1442318
-0.026126206 0.00022376329 0.08250989 1048579
-0.026281059 -0.0010683239 0.08251489 1245188
-0.02639389 -0.0023676082 0.082515076 1575184
-0.026465654 -0.0036741719 0.082510553 3351860
-0.02639389 -0.0043459311 0.082495943 1245968
-0.026273608 -0.005686447 0.082469389 1377025
-0.026339531 -0.0069958568 0.082464181 3419957
-0.02637881 -0.008310467 0.082455918 7037818
-0.02640605 -0.0096278414 0.082446255 3481136
-0.026190758 -0.01098942 0.082408763 3213328
-0.025963426 -0.012354799 0.082369879 7557232
-0.025722384 -0.013724327 0.0823294 2818082
-0.025707185 -0.015053749 0.082314834 7226976
-0.025455296 -0.016428307 0.082273081 2690858
-0.025138378 -0.01715216 0.08223027 1703946
-0.024938107 -0.018519908 0.082194425 7300480
-0.016750813 0.02391699 0.081023298 3278152
-0.017286122 0.02266518 0.08107198 3276847
-0.017848372 0.021418154 0.081123792 2687032
-0.018458664 0.020178854 0.081181131 2621476
-0.018705189 0.018892139 0.081196576 3014968
-0.019357026 0.017655842 0.080603674 2949965
-0.019800246 0.016397417 0.08064203 3735874
-0.020239532 0.015139356 0.080679931 3080255
-0.02082175 0.014561869 0.080741033 2293830
-0.021262586 0.013306051 0.080779143 1179745
-0.021698296 0.012050405 0.080816664 1179973
-0.022160053 0.01079946 0.080857217 1048577
-0.022971034 0.0096014962 0.080938414 917768
-0.023510695 0.0083649307 0.08098805 20
-0.024197876 0.0071521774 0.081054881 272
-0.024551153 0.00654798 0.08108943 10
-0.025047362 0.0053083152 0.081134051 918020
-0.025378466 0.0040437877 0.08115948 720901
-0.025677383 0.0027746111 0.081181169 2628910
-0.025931656 0.0014985949 0.081197634 2432298
-0.026126623 0.00021312386 0.081207231 1641501
-0.026280999 -0.0010790899 0.081212088 1245190
-0.026395559 -0.0023781359 0.081212305 1048579
-0.026467144 -0.0036847815 0.081207499 3481901
-0.026393235 -0.0043569356 0.081192315 1441803
-0.026264906 -0.0056988746 0.081164218 1442307
-0.026324511 -0.0070094541 0.081158005 3090479
-0.026361883 -0.0083244741 0.081149206 7300990
-0.026386976 -0.0096423179 0.081138968 3019558
-0.026166499 -0.011004917 0.081100076 3081999
-0.025934219 -0.012371279 0.081059799 6899813
-0.02592361 -0.013698682 0.081045359 2818080
-0.02567184 -0.015071586 0.081002772 7554659
-0.025646389 -0.016403884 0.080986582 2296100
-0.025295496 -0.017133981 0.080939025 1507336
-0.024893641 -0.018539801 0.080878876 7366273
-0.016741633 0.023905911 0.079709068 3605317
-0.017280102 0.022654451 0.079758748 3801146
-0.017845273 0.021407746 0.079811573 3671368
-0.018276751 0.020144671 0.079848737 2687032
-0.018703759 0.018881857 0.079885401 2097730
-0.01934582 0.017649241 0.079947263 3280218
-0.019789517 0.016390853 0.079985902 3735872
-0.020229399 0.015132822 0.080024101 3014710
-0.0205639 0.014520325 0.080056623 2556998
-0.02125442 0.013299756 0.080124222 1245540
-0.021690547 0.012044117 0.080162004 1245766
-0.022152901 0.010793231 0.080202878 1114370
-0.022977293 0.0095920339 0.079633258 851977
-0.02351743 0.0083555132 0.079683594 28
-0.024205446 0.0071428567 0.079751424 65556
-0.024557531 0.0065384656 0.079786316 65549
-0.025054216 0.0052988455 0.079831548 983043
-0.025383472 0.0040339828 0.079856992 786437
-0.025680542 0.0027644858 0.079878643 2628907
-0.025934398 0.0014883801 0.079895176 1775647
-0.026129007 0.0002027899 0.079904705 2497575
-0.026282191 -0.0010896623 0.079909317 983042
-0.026398361 -0.0023884848 0.079909571 1507336
-0.026469588 -0.0036952347 0.079904482 3414052
-0.026394963 -0.0043675154 0.079888888 2097674
-0.026258051 -0.0057109892 0.079859138 1835523
-0.0263111 -0.0070227608 0.079851888 4206904
-0.026346564 -0.0083382055 0.07984253 6971512
-0.026369393 -0.0096565261 0.07983169 3150113
-0.026142359 -0.011020392 0.079791218 3936538
-0.025903463 -0.012388058 0.079749323 6835047
-0.025890529 -0.013715997 0.079734199 2162711
-0.025632143 -0.015090242 0.079689965 7160679
-0.025604725 -0.016423032 0.079673111 2756637
-0.025247931 -0.017154306 0.07962399 1900551
-0.025033951 -0.018524557 0.079584971 7431549
-0.016702414 0.023891002 0.078391142 3278154
-0.017248929 0.022640467 0.078442402 2883645
-0.017821908 0.021394685 0.078496821 2818101
-0.018256009 0.020131879 0.078534752 2162722
-0.018685639 0.018869326 0.078572139 786486
-0.019336402 0.017637834 0.078635857 3087216
-0.019782007 0.01637964 0.078675173 3080252
-0.020121992 0.015767217 0.07870879 3735858
-0.020814776 0.01454553 0.078777544 3146288
-0.02125746 0.013289914 0.078816548 2031945
-0.021694839 0.012034431 0.078854926 1966645
-0.022164226 0.010784537 0.078897119 1769989
-0.022980154 0.0095872581 0.078980625 917770
-0.023723781 0.008381404 0.079055533 285
-0.024211407 0.0071385354 0.079099953 131093
-0.024562061 0.0065339133 0.079134889 196625
-0.025058627 0.0052942708 0.07918039 983042
-0.025385559 0.0040290281 0.079205677 1376265
-0.025681674 0.0027593523 0.079227298 2102045
-0.025945842 0.0014795512 0.078593671 1708310
-0.026139379 0.00019376725 0.078603067 589826
-0.026289105 -0.0010992885 0.078607164 1310979
-0.026406467 -0.002397947 0.078607388 917516
-0.026375473 -0.0030624643 0.078596711 1902882
-0.026399255 -0.0043776855 0.078585662 1442333
-0.0264256 -0.0056931451 0.078574926 1442058
-0.026297152 -0.0070361793 0.078545548 4401712
-0.026330352 -0.0083520859 0.078535609 5717588
-0.026350856 -0.0096709058 0.078524135 3345187
-0.026115894 -0.011036284 0.078481898 4002850
-0.025868833 -0.01240553 0.078438185 6376039
-0.025853276 -0.013734072 0.078422338 1638411
-0.025821745 -0.01506643 0.078404546 6833769
-0.02555722 -0.016443282 0.078358687 2296854
-0.025193155 -0.017176002 0.078307815 1769486
-0.024972916 -0.018547609 0.078267254 7694721
-0.017067432 0.02260711 0.077107698 1638475
-0.017639697 0.021360852 0.077162728 2293825
-0.018234253 0.020118937 0.07722047 2097210
-0.018665552 0.018856533 0.077258475 1048649
-0.019321501 0.017625667 0.077323668 1246557
-0.019768476 0.016367592 0.077363603 2556496
-0.020356596 0.015789725 0.07742767 3146568
-0.02080673 0.014534168 0.077468008 3604540
-0.021250665 0.013278671 0.077507623 3211319
-0.021689236 0.0120233 0.077546582 2424866
-0.022420883 0.01081191 0.07762102 1638922
-0.022983253 0.009577319 0.077674985 589831
-0.023728132 0.0083716363 0.077751063 21
-0.024216533 0.0071288347 0.077796109 21
-0.024566114 0.0065240487 0.077831402 393496
-0.025063455 0.0052844808 0.077877544 1179660
-0.025390208 0.0040191785 0.077903047 1310726
-0.025686026 0.0027494207 0.07792481 655364
-0.025936902 0.0014727712 0.077941135 458752
-0.026131153 0.00018706173 0.077950597 786436
-0.026350081 -0.001094602 0.077963039 1114114
-0.026399434 -0.0024045184 0.07795494 1049107
-0.026369214 -0.003068924 0.077944227 2628145
-0.026391804 -0.004384391 0.077932872 1575719
-0.026411593 -0.0057010204 0.07792116 1114125
-0.026273191 -0.0070458353 0.077890255 1769475
-0.026316524 -0.008365564 0.077228814 2753555
-0.026334703 -0.0096848607 0.077216707 2687260
-0.026091874 -0.011051737 0.077172674 6111845
-0.025836587 -0.012422584 0.077127106 5786722
-0.025818467 -0.013751715 0.077110514 2757688
-0.025784194 -0.015084669 0.077091962 5784933
-0.025511861 -0.016463131 0.077044241 3746628
-0.025140166 -0.017197371 0.076991566 2890557
-0.02491349 -0.018570334 0.076949418 7235716
-0.01703763 0.022593297 0.07579083 262231
-0.017616928 0.021347858 0.07584741 458832
-0.018219054 0.020106874 0.075906813 328014
-0.018652856 0.018844746 0.075945556 131158
-0.019318044 0.017615072 0.076012731 328801
-0.019766986 0.016357213 0.076053366 1116257
-0.020363212 0.015780456 0.076119341 1575008
-0.020814896 0.014525093 0.076160342 2558558
-0.021260262 0.013269767 0.076200575 2755935
-0.021966159 0.012053169 0.07627283 1310781
-0.022442579 0.010804743 0.076316915 393235
-0.023005724 0.0095702708 0.07637164 131093
-0.023751318 0.0083646923 0.076448835 28
-0.024240136 0.0071219653 0.07649447 986929
-0.02458781 0.0065168813 0.076529995 789540
-0.025084317 0.0052771866 0.076576605 262418
-0.025409639 0.0040116534 0.076602153 393230
-0.025703788 0.0027416274 0.076623894 327686
-0.02595222 0.0014645681 0.076640002 589830
-0.026144862 0.00017858297 0.076649249 852237
-0.026361883 -0.0011034235 0.07666149 1182231
-0.026407659 -0.0024139658 0.076652668 2499374
-0.02637589 -0.003078647 0.076641507 2039080
-0.026394963 -0.0043947399 0.076629378 2697272
-0.026406348 -0.0057128593 0.07661628 852247
-0.026257634 -0.0070595294 0.076583467 1310729
-0.026044667 -0.0084188432 0.076542713 2162705
-0.026052952 -0.0097404569 0.076529212 4269374
-0.026051998 -0.011064462 0.076514572 7430536
-0.025789142 -0.012436792 0.076467618 5262175
-0.025768399 -0.013766512 0.076450512 4930659
-0.02548641 -0.01514551 0.076401167 6642298
-0.025452256 -0.016479969 0.076382376 5986162
-0.025318742 -0.017175138 0.0757038 5856634
-0.024854302 -0.018593028 0.075631276 5395563
-0.01698333 0.022576325 0.074470691 86
-0.017574728 0.021332331 0.074529491 339
-0.018189013 0.020092838 0.074591152 340
-0.018626451 0.018831097 0.074630789 65883
-0.019305289 0.017603196 0.074700534 394854
-0.019757092 0.016345672 0.074741989 198506
-0.020365119 0.015770532 0.074810371 330092
-0.020819068 0.014515452 0.074852116 921198
-0.02126658 0.013260402 0.07489308 658026
-0.021985412 0.012045652 0.074967891 131658
-0.022467971 0.010798119 0.07501325 196887
-0.023267806 0.0095989108 0.075098217 131345
-0.023777843 0.0083582625 0.075147033 277
-0.02416563 0.007758528 0.075188003 285
-0.024614573 0.0065104961 0.07522922 1777451
-0.025109649 0.0052705854 0.075276196 1909036
-0.025433183 0.0040047765 0.075301774 1842216
-0.025724232 0.0027342513 0.075323284 1908009
-0.025969923 0.0014567524 0.075339139 1841701
-0.026159763 0.00017029792 0.07534802 1842216
-0.026303828 -0.0011237711 0.075351171 1974317
-0.026416242 -0.002423346 0.075350374 1580336
-0.026382506 -0.0030883774 0.075338729 1843509
-0.026397824 -0.0044051483 0.075325772 1975354
-0.026400924 -0.0057247281 0.075311281 2369338
-0.026240766 -0.0070734471 0.075276375 5065058
-0.02601999 -0.0084342211 0.075233854 6973057
-0.026025593 -0.0097564012 0.075219646 6316413
-0.02576524 -0.011127099 0.075172141 5593207
-0.025750875 -0.012454942 0.075155415 5725295
-0.025727451 -0.013785273 0.075137541 5659505
-0.025437951 -0.015165791 0.075086333 5133422
-0.025299907 -0.015855506 0.07506156 5133168
-0.025255084 -0.017192811 0.075040981 5528437
-0.024981081 -0.018574655 0.074991666 5001573
-0.016956866 0.022562943 0.073153779 86
-0.017555654 0.021319821 0.07321424 65867
-0.018177927 0.020081326 0.07327769 196687
-0.018617511 0.018819802 0.073318042 88
-0.019306242 0.017593198 0.073389925 197729
-0.019759953 0.016335897 0.073432088 871
-0.020376205 0.01576189 0.073502466 132714
-0.020831645 0.014506996 0.073544867 526440
-0.021557212 0.013291746 0.073621497 461152
-0.022005498 0.012038246 0.073663041 263737
-0.022494137 0.010791615 0.073709682 1579284
-0.023296177 0.0095927343 0.073796056 1908240
-0.02380383 0.0083517432 0.073845163 921090
-0.024189949 0.0077517629 0.073886462 986887
-0.024637878 0.006503582 0.073928006 1645336
-0.02502948 0.005247578 0.073962428 2171947
-0.025452375 0.003997229 0.074000821 1579558
-0.025739968 0.0027261376 0.074022077 1712176
-0.025982857 0.0014481694 0.074037649 1449000
-0.026169717 0.00016120076 0.074046127 1449768
-0.026383281 -0.0011214167 0.074057981 1647153
-0.026508749 -0.0024187043 0.074058682 1450293
-0.026385486 -0.0030987188 0.074035414 1515834
-0.02639693 -0.0044161901 0.074021615 1844031
-0.02639395 -0.0057368726 0.074005969 2172226
-0.026220024 -0.0070880502 0.073968627 3685725
-0.025990844 -0.0084503889 0.073924229 5264754
-0.025993586 -0.0097731799 0.073909283 5856379
-0.025723934 -0.011145674 0.073859721 5659255
-0.02570653 -0.012474194 0.07384219 5592940
-0.025680125 -0.013805211 0.073823504 5329772
-0.025381267 -0.015187606 0.07377018 5396081
-0.0252406 -0.015877888 0.073744617 5264495
-0.024950683 -0.01726149 0.073692396 5199213
-0.024704635 -0.018638656 0.073645733 5462385
-0.017106175 0.022572242 0.071859248 263769
-0.017537057 0.021307386 0.071898885 853053
-0.018167734 0.02006992 0.071964204 787268
-0.018609762 0.018808663 0.072005317 196691
-0.019307911 0.017583296 0.072079331 196695
-0.019763649 0.016326226 0.072122224 328281
-0.02038759 0.015753284 0.072194554 985694
-0.0208444 0.014498569 0.072237618 2101853
-0.02157557 0.01328411 0.072315946 5457524
-0.022309959 0.012072124 0.072394714 5328204
-0.022514939 0.010784313 0.072405443 2105350
-0.023319066 0.0095857605 0.072493218 1776128
-0.023826182 0.0083446801 0.072542824 1512704
-0.024210691 0.0077444538 0.072584458 1447168
-0.024781287 0.0065151379 0.072642244 988160
-0.025146902 0.0052553192 0.072673693 1250316
-0.025466621 0.0039888918 0.072699226 1645854
-0.025750637 0.0027172118 0.07272017 1580321
-0.025990725 0.0014387593 0.072735466 1383458
-0.026175737 0.0001514554 0.072743669 1515046
-0.02631402 -0.0011436269 0.07274586 1383470
-0.026421368 -0.0024441257 0.072744071 1844022
-0.026383221 -0.0031099468 0.072731346 1778229
-0.02639246 -0.0044278353 0.072716884 1975097
-0.0263834 -0.0057496205 0.072700083 2500669
-0.026201308 -0.0071023032 0.072660953 3422804
-0.025965035 -0.0084659755 0.072614834 6054009
-0.025965333 -0.0097892955 0.072599195 5855862
-0.025956333 -0.011115089 0.072582334 5659255
-0.02566874 -0.012492239 0.072529554 5396590
-0.025639951 -0.013823822 0.072510116 5067114
-0.025334775 -0.015207529 0.072455026 5461356
-0.025192142 -0.015898257 0.072428741 5396079
-0.024897099 -0.017282978 0.072374918 5265006
-0.024647057 -0.018661052 0.072326891 5265267
-0.016928554 0.022539355 0.070522606 263509
-0.017542839 0.021298125 0.070586562 2100808
-0.018181086 0.020061642 0.07065367 1639487
-0.018625259 0.018800661 0.070695505 1378892
-0.019332409 0.017576508 0.070771612 2562639
-0.019789398 0.016319625 0.070815153 3614027
-0.020420372 0.015747674 0.070889391 4928341
-0.020877838 0.014493056 0.070933007 3739180
-0.021613479 0.013279267 0.071012929 6634052
-0.02235055 0.012067713 0.071093038 5456169
-0.02282685 0.01081983 0.071139164 2301440
-0.023358166 0.0095811859 0.071192488 2038016
-0.023862183 0.0083396807 0.071242265 1907460
-0.024395704 0.0077620894 0.071303889 1842180
-0.024810672 0.006509155 0.071342058 1118720
-0.025172353 0.0052487329 0.071373291 591360
-0.025487721 0.0039816201 0.071398482 786945
-0.025764883 0.0027088523 0.071418695 853251
-0.026001096 0.001429759 0.071433552 1906455
-0.026181698 0.00014171004 0.071441136 1907746
-0.026389897 -0.0011418611 0.071452349 1513766
-0.026508808 -0.0024403334 0.07145188 1711658
-0.02648896 -0.0031030104 0.071441278 1580072
-0.026379466 -0.0044409484 0.071410939 1842214
-0.026362121 -0.0057642236 0.071392648 854547
-0.026170909 -0.0071185827 0.071351603 4671064
-0.025927007 -0.0084837005 0.071303651 5396594
-0.025924444 -0.0098076612 0.071287259 5790841
-0.025912523 -0.011134103 0.071269609 5461104
-0.025618315 -0.012512594 0.071215026 5001834
-0.025586903 -0.013844803 0.071194813 4804457
-0.025276899 -0.015229568 0.071138106 4935789
-0.025132358 -0.015920728 0.07111112 5001582
-0.024834931 -0.017306075 0.071056031 4738662
-0.024582922 -0.0186847 0.071006879 4738159
-0.017109156 0.022557676 0.069889329 263760
-0.017544925 0.021293394 0.069930255 1969994
-0.018190444 0.020057864 0.069998726 917555
-0.018636465 0.018797122 0.070041038 1707584
-0.0193519 0.017574109 0.070118725 5455706
-0.019809961 0.01631739 0.070162632 4859711
-0.020459354 0.015742913 0.06958507 3735571
-0.020916998 0.014488362 0.069629192 4654630
-0.021656156 0.013275109 0.069710575 4392737
-0.022394717 0.012063809 0.069791898 3149067
-0.022869825 0.010815792 0.069838382 2628362
-0.023400009 0.009577021 0.069892168 2235907
-0.024080038 0.008362107 0.06996581 1710081
-0.024432182 0.0077571794 0.070004247 1907207
-0.024844766 0.0065039024 0.070042521 1116160
-0.025204241 0.0052431598 0.070073746 917504
-0.025515556 0.0039754212 0.070098609 1442048
-0.025786221 0.0027016327 0.070118107 1310720
-0.026018679 0.001421921 0.070132539 1310724
-0.02619499 0.00013316423 0.07013952 983561
-0.026324987 -0.0011633486 0.070140362 2104098
-0.026412785 -0.0018079206 0.070143811 2236711
-0.026373565 -0.0031332523 0.070122212 1974051
-0.026373625 -0.004452832 0.070105806 1051659
-0.026351631 -0.0057769716 0.070086487 1510927
-0.02615267 -0.0071327463 0.070043668 4670549
-0.025902629 -0.0084990337 0.069994047 5264755
-0.025897801 -0.0098235011 0.069976956 5462136
-0.025883555 -0.011150457 0.06995859 5329518
-0.025583982 -0.012530044 0.069902353 5198186
-0.025550425 -0.013862759 0.069881402 4672871
-0.025236666 -0.015248343 0.069823228 4738410
-0.025090516 -0.015939876 0.069795549 5001582
-0.024791241 -0.017325684 0.069739275 4738410
-0.024538815 -0.018704534 0.069689192 5132919
-0.024307132 -0.020081162 0.069641843 5792130
-0.016932845 0.022524953 0.068552226 2566741
-0.017560601 0.021285437 0.068619132 2564395
-0.018212795 0.020050772 0.068689331 3744310
-0.018660605 0.018790275 0.068732321 3213603
-0.019384742 0.017568462 0.068812132 3473937
-0.019742072 0.016957641 0.068851411 3735820
-0.020487309 0.015741713 0.068934046 4260624
-0.020945251 0.014487237 0.068978466 4588322
-0.021688044 0.013274543 0.069060825 4195611
-0.022428453 0.012063548 0.0691429 3212813
-0.022626281 0.010774799 0.069152698 2889225
-0.023431182 0.0095764697 0.069243409 2235394
-0.02410835 0.0083611682 0.06931711 1644288
-0.024456263 0.0077556148 0.069355235 1578496
-0.024878442 0.0064985827 0.068742938 852480
-0.025235534 0.0052374899 0.068774156 1376512
-0.025542676 0.003969118 0.068798669 1638400
-0.025806904 0.0026942939 0.068817407 1835008
-0.026035488 0.0014139563 0.068831384 1769730
-0.026207328 0.0001244545 0.06883771 1245184
-0.026333213 -0.0011727661 0.068837874 786435
-0.026321709 -0.0018338561 0.068827942 720903
-0.026371002 -0.003144525 0.068817787 1971478
-0.026366055 -0.0044650063 0.068800338 2957856
-0.026141644 -0.005824022 0.068753339 1378579
-0.026131988 -0.0071473345 0.068735227 4999516
-0.025877237 -0.0085145533 0.068684116 5659776
-0.025870442 -0.0098394677 0.068666361 5791362
-0.02585417 -0.011166885 0.068647318 5592957
-0.025551438 -0.01254715 0.068589687 5330037
-0.025516152 -0.013880298 0.068568066 4606314
-0.025201261 -0.01526621 0.068508752 4540529
-0.025054038 -0.015958011 0.068480462 4540529
-0.024755716 -0.017343774 0.068423346 3882603
-0.024505079 -0.0187224 0.068372644 2566489
-0.024476826 -0.020060048 0.06835188 2040158
-0.016960144 0.022518508 0.06724184 5265267
-0.017591357 0.021279462 0.067310013 5592417
-0.018248677 0.020045497 0.06738174 3019546
-0.018697798 0.018785201 0.06742537 3801362
-0.019428372 0.017564289 0.067507036 4063756
-0.019786239 0.016953565 0.067546867 3997963
-0.020535827 0.015738301 0.067631118 4063250
-0.02099359 0.014483839 0.067675985 4522529
-0.02173841 0.013271481 0.067759648 4129818
-0.022479177 0.012060598 0.067842782 3342856
-0.022670329 0.010770917 0.067851655 2821127
-0.023475349 0.009572655 0.067943513 2169092
-0.024147928 0.0083567053 0.06801752 1906439
-0.024491668 0.0077505335 0.068055518 1906182
-0.024898708 0.0064964518 0.068093635 851968
-0.025251627 0.0052347258 0.068124421 1442305
-0.025554478 0.0039656833 0.068148464 1572864
-0.02581197 0.0026897937 0.06816636 1703937
-0.026036441 0.0014087781 0.068179794 1703937
-0.026203573 0.00011847913 0.068185456 1572866
-0.02632457 -0.0011795759 0.068184882 1638404
-0.02631861 -0.0018451661 0.067523628 1703937
-0.026362836 -0.0031567365 0.067512497 1376514
-0.026351154 -0.0044784322 0.067493729 1114120
-0.026118159 -0.0058390126 0.067444757 589855
-0.026102543 -0.0071634576 0.06742543 920124
-0.025841355 -0.0085319132 0.067372568 791120
-0.025831938 -0.0098574087 0.067354061 131908
-0.025812924 -0.011185445 0.067334235 131650
-0.025505483 -0.012566715 0.06727498 131395
-0.025189102 -0.013951585 0.067214504 65857
-0.025150239 -0.015286982 0.067191914 131142
-0.025001287 -0.015979186 0.067162916 72
-0.024703085 -0.017365083 0.067104861 70
-0.024453044 -0.018743753 0.06705337 131405
-0.024224639 -0.020120025 0.067004807 857
-0.0165748 0.02378051 0.065892398 5330288
-0.016997278 0.022513323 0.065932803 5265008
-0.01763159 0.021274716 0.06600222 5262678
-0.018293202 0.020041354 0.066075377 2361100
-0.018743217 0.018781222 0.066119596 4068360
-0.019478798 0.017561048 0.066202924 5385525
-0.019836783 0.016950369 0.066243276 4464173
-0.020588994 0.015735522 0.066328913 4461337
-0.021046162 0.014481038 0.066374168 6238515
-0.021791279 0.013268791 0.066458903 6833220
-0.022530735 0.012057774 0.066542879 2162691
-0.022716045 0.010767289 0.066550925 2360836
-0.023519754 0.009568885 0.06664376 2299397
-0.024085462 0.0089951083 0.066712648 1839874
-0.024525881 0.0077452809 0.066755705 1444097
-0.024929881 0.0064907521 0.066793784 1507841
-0.025278449 0.0052283555 0.066824257 1442048
-0.025577247 0.0039586872 0.06684792 1638656
-0.025828183 0.0026817471 0.066865034 1900800
-0.026048005 0.0013999641 0.066877864 1769730
-0.026210368 0.00010886788 0.066882811 1638657
-0.026326776 -0.0011899769 0.066881455 1900546
-0.02630204 -0.0018533096 0.066869386 1769728
-0.026341379 -0.0031657666 0.06685742 1507587
-0.02632308 -0.0044886544 0.066837542 917512
-0.026082039 -0.0058506876 0.066787057 131103
-0.026060998 -0.0071761757 0.066766761 56
-0.025793314 -0.008545883 0.066712573 332
-0.025781214 -0.0098719746 0.066693485 65612
-0.025489867 -0.011254646 0.065981857 337
-0.025458932 -0.01258637 0.065959923 80
-0.025138378 -0.013972148 0.065897889 334
-0.025097728 -0.015308037 0.065874591 334
-0.024679303 -0.016050547 0.065807782 80
-0.024647295 -0.017386988 0.065785646 65612
-0.024396181 -0.018766031 0.065733135 79
-0.024166882 -0.02014263 0.065683641 463467
-0.016621888 0.023776568 0.064584389 5396340
-0.017045438 0.022509575 0.06462536 4540772
-0.017681122 0.021271192 0.064695768 787473
-0.018343925 0.020038046 0.064769953 4600122
-0.01879406 0.018777981 0.064814657 5390915
-0.019532025 0.017558195 0.064899325 6182501
-0.019889474 0.016947471 0.064940073 5655128
-0.02064234 0.015732773 0.065026842 5257011
-0.021098316 0.014478184 0.065072417 5518642
-0.0215469 0.013223492 0.065116972 6177345
-0.022287786 0.012012191 0.065202162 2031616
-0.022759557 0.01076334 0.065249972 2098177
-0.023561358 0.0095646903 0.065343671 2100736
-0.024121463 0.0089901015 0.065412663 1970433
-0.024557054 0.0077395663 0.065455496 1180416
-0.024956286 0.0064843148 0.065493293 1442305
-0.025300503 0.0052212551 0.065523446 1507841
-0.025595307 0.0039509535 0.065546744 1179648
-0.025839865 0.0026729777 0.065563038 1114112
-0.026055574 0.0013905093 0.065575331 983040
-0.026213169 9.8600984e-05 0.065579556 852225
-0.026323617 -0.001201272 0.065577187 917768
-0.026291966 -0.0018657818 0.06556391 917768
-0.026326418 -0.0031791329 0.065550968 1048576
-0.026303232 -0.0045029372 0.065529987 720900
-0.026054382 -0.0058664009 0.065477557 65555
-0.026028335 -0.0071928576 0.065456159 55
-0.025754869 -0.0085636973 0.065400258 65883
-0.025740147 -0.009890385 0.065380402 85
-0.02543205 -0.011270605 0.065319642 82
-0.025398791 -0.012602895 0.065297164 339
-0.025075555 -0.013989314 0.065234251 332
-0.024931431 -0.014680043 0.065205224 334
-0.024614155 -0.016068369 0.065143093 591
-0.024581432 -0.017405093 0.06512063 65612
-0.024330497 -0.018784255 0.065067708 65612
-0.024101377 -0.020160973 0.065017805 594796
-0.016666472 0.023772314 0.063276105 5264754
-0.01728195 0.022530131 0.063344479 4936041
-0.017722487 0.021266595 0.063388251 4672861
-0.018383384 0.02003324 0.063463055 5329762
-0.018833101 0.018773153 0.06350816 5066849
-0.019571126 0.017553404 0.063593835 5001573
-0.019927919 0.016942605 0.063634962 5066338
-0.020680249 0.015727878 0.063722715 5655902
-0.021135509 0.014473207 0.063768655 7036787
-0.021878719 0.013260782 0.063855164 7431790
-0.02232343 0.01200705 0.063899659 3287581
-0.023305655 0.01083333 0.064019874 2564112
-0.023592889 0.009558998 0.064042233 1840387
-0.024150074 0.0089839846 0.064111672 1840386
-0.02458322 0.0077330768 0.064154603 1248512
-0.024978459 0.0064772293 0.064192213 1181954
-0.02532059 0.0052138418 0.064222336 589824
-0.025612235 0.0039430261 0.064245351 721161
-0.025851667 0.0026642308 0.064261019 524806
-0.026064038 0.0013811961 0.064272866 262145
-0.026218116 8.867681e-05 0.064276502 65538
-0.026324809 -0.0012118518 0.064273439 131086
-0.026287854 -0.0018772706 0.064259149 131086
-0.02617532 -0.0032153949 0.064225152 327686
-0.026290357 -0.0045160204 0.064223237 852235
-0.026034474 -0.0058807731 0.064168982 2298921
-0.026004374 -0.0072080344 0.064146571 918832
-0.025725305 -0.0085799545 0.064088963 89
-0.025708079 -0.009907186 0.064068355 88
-0.025395036 -0.011288419 0.064005904 83
-0.025359392 -0.012621254 0.063982651 81
-0.025032163 -0.014008552 0.063918158 65614
-0.02488637 -0.014699653 0.063888438 65614
-0.024566114 -0.016088665 0.063824885 334
-0.024531782 -0.01742585 0.063801751 65614
-0.024279416 -0.018805414 0.063747764 74
-0.024049222 -0.020182505 0.063696891 1118
-0.016151071 0.025018707 0.061906688 5463165
-0.016720593 0.023769267 0.061969258 5133169
-0.017332673 0.022526719 0.062037908 5068138
-0.017772198 0.0212631 0.062082008 4673372
-0.018430173 0.020029403 0.062157243 4409948
-0.018878996 0.018769234 0.062202685 4738151
-0.019615352 0.017549321 0.062289141 4475492
-0.019970953 0.016938381 0.062330574 4738410
-0.020721257 0.0157234 0.062419057 5132656
-0.021175206 0.014468595 0.06246531 6250622
-0.02191627 0.013255887 0.062552512 6447991
-0.022359669 0.012001999 0.06259729 2764595
-0.023336053 0.010827452 0.062718138 2171680
-0.023623765 0.0095532089 0.062740728 1776152
-0.024177492 0.0089776888 0.062810525 1841677
-0.024608195 0.0077264309 0.062853567 1512712
-0.024999738 0.0064700022 0.062890992 1052175
-0.025339782 0.0052062944 0.062921099 131085
-0.025630116 0.0039352626 0.062944092 131347
-0.025867701 0.0026561543 0.062959559 65552
-0.026076019 0.0013724566 0.062970854 65550
-0.026227295 7.9460442e-05 0.062973984 65801
-0.02633214 -0.0012214109 0.062970474 65550
-0.026291311 -0.0018874928 0.062955379 65550
-0.02617389 -0.0032264814 0.062920079 9
-0.026286721 -0.004527539 0.062917687 131093
-0.026025772 -0.0058932304 0.062861823 262176
-0.025717676 -0.0072688982 0.062799193 196666
-0.025709808 -0.0085937381 0.062779486 350
-0.025403082 -0.0099725202 0.062717006 88
-0.025373638 -0.011303425 0.062694184 86
-0.025336206 -0.012636691 0.062670209 337
-0.025004625 -0.014024869 0.062604092 65612
-0.024857342 -0.014716312 0.062573671 65612
-0.024532616 -0.016106263 0.062508494 65612
-0.024496555 -0.017443895 0.062484644 65614
-0.024240732 -0.01882425 0.062429301 65865
-0.024007022 -0.02020213 0.062377095 1186413
-0.016778827 0.023766756 0.060663112 4868690
-0.017387748 0.022523858 0.060732082 5132381
-0.017825365 0.021260053 0.060776338 4869217
-0.018480301 0.020026013 0.060851999 4935261
-0.018928111 0.01876577 0.06089776 5001575
-0.019662797 0.017545663 0.060984969 4738664
-0.020017087 0.016934574 0.061026707 5067629
-0.020765185 0.015719347 0.061115906 5461106
-0.021217704 0.014464371 0.061162412 6709891
-0.021956444 0.013251379 0.061250307 6381431
-0.022398412 0.01199732 0.061295323 3028036
-0.023136139 0.010787688 0.061383128 1843495
-0.023658216 0.0095479488 0.061439767 24
-0.024209023 0.0089720041 0.061510004 11
-0.02463752 0.0077204257 0.061553136 4
-0.025025308 0.0064634457 0.061590396 7
-0.025363624 0.0051994622 0.061620489 275
-0.025652528 0.0039282069 0.061643459 278
-0.025888264 0.0026488006 0.061658718 65554
-0.026093662 0.0013646185 0.061669588 131090
-0.026242316 7.1190298e-05 0.061672255 65554
-0.026242673 -0.00058776885 0.06166286 17
-0.026299596 -0.0018969178 0.061652228 272
-0.026177466 -0.0032367259 0.061615638 272
-0.026109815 -0.0045685247 0.061586916 26
-0.026023746 -0.0059045255 0.06155552 38
-0.025710642 -0.007281132 0.061491176 322
-0.025701225 -0.0086062998 0.061470859 601
-0.025388777 -0.0099861696 0.061406575 85
-0.025357544 -0.011317492 0.061383054 86
-0.025318086 -0.012651205 0.061358325 131155
-0.024979055 -0.014040828 0.061290108 72
-0.024531364 -0.014787763 0.061215609 65865
-0.024496019 -0.016124442 0.061191425 334
-0.024219334 -0.017507523 0.0611322 65614
-0.023963273 -0.018888518 0.061075933 70
-0.023949683 -0.020224676 0.061054848 592736
-0.01723963 0.022499748 0.060053684 5131353
-0.017861664 0.0212598 0.060124956 3617873
-0.018525362 0.02002196 0.05954612 5327971
-0.018972337 0.018761635 0.05959221 2828345
-0.019705057 0.017541312 0.059680142 4670290
-0.020059109 0.016930208 0.059722319 5525347
-0.020804286 0.015714616 0.059812121 5526640
-0.021254361 0.014459327 0.059858732 5656433
-0.021697104 0.013203919 0.0599043 5723239
-0.022429526 0.011991516 0.059992291 4474459
-0.022889674 0.010741055 0.060040452 778
-0.023677886 0.0095404759 0.060136661 34
-0.024055898 0.008938618 0.060182445 26
-0.024646997 0.0077114105 0.060249828 278
-0.025030732 0.0064537823 0.06028685 277
-0.025366843 0.0051894188 0.060316876 20
-0.025653899 0.0039178431 0.060339734 65554
-0.025886238 0.0026378483 0.060354561 18
-0.026088119 0.0013530478 0.060364924 278
-0.026234865 5.9247017e-05 0.060367204 24
-0.026231527 -0.00060035288 0.060357064 278
-0.026284695 -0.0019101873 0.060345612 272
-0.026304841 -0.003226161 0.060329273 18
-0.026088536 -0.0045830533 0.060278237 28
-0.026000798 -0.0059194267 0.060246035 38
-0.02568692 -0.0072962642 0.060180604 65857
-0.025675118 -0.0086219534 0.060159519 65614
-0.025363386 -0.010001801 0.060094371 65616
-0.02533251 -0.011333153 0.060070448 332
-0.025293112 -0.012666941 0.060045272 72
-0.02495122 -0.014057204 0.059975609 66107
-0.024499774 -0.0148049 0.059899509 60
-0.024462998 -0.016141951 0.059874661 65867
-0.024179876 -0.017526358 0.059813559 65612
-0.023915827 -0.018909007 0.059755243 65
-0.017471611 0.022519737 0.058773741 5523550
-0.017906308 0.021255635 0.058818229 2890055
-0.018556952 0.020021126 0.058894537 5655912
-0.01900351 0.018760793 0.058940798 984854
