# .PCD v0.7 - Point Cloud Data file format
VERSION 0.7
FIELDS x y z rgb
SIZE 4 4 4 4
TYPE F F F U
COUNT 1 1 1 1
WIDTH 1045
HEIGHT 1
VIEWPOINT 0 0 0 1 0 0 0
POINTS 1045
DATA ascii
-0.0024525821 -0.02454903 0.030046083 6316641
-0.0024525821 -0.024517179 0.024833024 5395810
-0.0024525821 -0.024305169 0.022226494 5395810
-0.0024525821 -0.024541777 0.027439553 5067101
-0.02734153 0.0010033324 0.019619964 5461602
-0.025930233 0.0010033324 0.014406908 6711660
-0.025179029 0.0010033324 0.011800379 6448752
-0.025911346 0.0010033324 0.014341395 6777453
-0.026725885 0.0010033324 0.017013436 6843765
-0.027200934 0.0010033324 0.030046083 4474974
-0.027589884 0.0010033324 0.024833024 5330018
-0.027577575 0.0010033324 0.022226494 4869983
-0.027452338 0.0010033324 0.027439553 6185321
-0.028184898 0.0010033324 0.071750551 5197653
-0.0024525821 -0.026400127 0.071750551 4405053
-0.0024525821 -0.025247 0.040472202 5395282
-0.0024525821 -0.024677441 0.035259143 5132633
-0.0024525821 -0.024586525 0.032652613 6119265
-0.0024525821 -0.025061961 0.039007626 4210788
-0.0024525821 -0.024923015 0.037865672 4934736
-0.0024525821 -0.026068665 0.050898314 5395280
-0.0024525821 -0.025897775 0.045685258 5854813
-0.0024525821 -0.025592756 0.043078728 5263699
-0.0024525821 -0.026065499 0.048291788 5461075
-0.028075386 0.0010033324 0.050898314 4277327
-0.027351208 0.0010033324 0.040472202 4803154
-0.026843507 0.0010033324 0.035259143 5461856
-0.026956346 0.0010033324 0.032652613 6119271
-0.027033396 0.0010033324 0.037865672 5987166
-0.027685374 0.0010033324 0.045685258 5592666
-0.027526505 0.0010033324 0.043078728 4474447
-0.027884956 0.0010033324 0.048291788 5263700
-0.019593433 -0.019848906 0.071750551 3155251
-0.0024525821 -0.026357118 0.061324432 3026490
-0.0024525821 -0.026053127 0.056111373 4078665
-0.0024525821 -0.026038028 0.053504847 4144715
-0.0024525821 -0.026163187 0.058717906 3155243
-0.012878701 -0.024222322 0.071750551 2434613
-0.018091761 -0.021315593 0.071750551 3549747
-0.016515896 -0.022455432 0.071750551 4471622
-0.015485227 -0.023049757 0.071750551 3482418
-0.0024525821 -0.026474584 0.066537492 4341313
-0.0024525821 -0.026487824 0.063930966 3683906
-0.01036077 -0.025061961 0.071750551 4271416
-0.0076656416 -0.025834214 0.071750551 4334891
-0.010272168 -0.02508964 0.071750551 4271159
-0.0024525821 -0.026407629 0.069144025 3552063
-0.0050591081 -0.026289012 0.071750551 4335403
-0.028184168 0.0010033324 0.061324432 4471864
-0.028321598 0.0010033324 0.056111373 2895153
-0.028240506 0.0010033324 0.053504847 1908526
-0.028286316 0.0010033324 0.058717906 7500143
-0.02422902 -0.014635846 0.071750551 5000265
-0.02330482 -0.015655071 0.071750551 5197647
-0.025778037 -0.012029313 0.071750551 4274243
-0.026862387 -0.0094227865 0.071750551 5126457
-0.025911346 -0.011733517 0.071750551 4602692
-0.028088566 0.0010033324 0.066537492 3880513
-0.028102465 0.0010033324 0.063930966 3221814
-0.027551275 -0.0068162531 0.071750551 4472386
-0.027973369 -0.004209727 0.071750551 4735041
-0.028122701 0.0010033324 0.069144025 4606032
-0.028246071 -0.0016031936 0.071750551 4868936
-0.021774285 -0.017242372 0.071750551 3223112
-0.020698287 -0.018529549 0.071750551 3223873
0.018399656 0.0010033324 0.0088350419 6975878
0.0079735368 0.0010033324 0.0030596917 4606036
0.0027604774 0.0010033324 0.0021850085 3552841
0.011113048 0.0010033324 0.0039807893 5000525
0.013186596 0.0010033324 0.0048393346 6316126
0.015793122 0.0010033324 0.006367499 9212302
0.016088992 0.0010033324 0.0065873191 7829640
0.01867573 0.0010033324 0.0091938488 6845325
0.02260641 0.0010033324 0.030046083 4934239
0.021520548 0.0010033324 0.019619964 8092548
0.020941332 0.0010033324 0.014406908 4540259
0.020163201 0.0010033324 0.011800379 4211821
0.021006182 0.0010033324 0.014750862 4144998
0.021290682 0.0010033324 0.017013436 3355485
0.022148713 0.0010033324 0.024833024 4540510
0.021817066 0.0010033324 0.022226494 4868960
0.022441931 0.0010033324 0.027439553 4803167
0.023904629 0.0010033324 0.050898314 3354959
0.023427747 0.0010033324 0.040472202 855345
0.022979505 0.0010033324 0.035259143 4539737
0.022742249 0.0010033324 0.032652613 5066081
0.023212299 0.0010033324 0.037865672 7698033
0.023544759 0.0010033324 0.045685258 1578563
0.023562968 0.0010033324 0.043078728 3552838
0.023612708 0.0010033324 0.047874574 3946836
0.02365271 0.0010033324 0.048291788 3157068
0.0079735368 -0.024137288 0.071750551 2762817
0.0027604774 -0.025666125 0.071750551 4994877
0.0001539439 -0.026191175 0.071750551 3810603
0.0050217509 -0.025061961 0.071750551 4859946
0.0053670034 -0.024963718 0.071750551 4994872
0.013186596 -0.021303739 0.071750551 2498102
0.010580063 -0.022960387 0.071750551 3681848
0.011443906 -0.022455432 0.071750551 4403513
0.015169568 -0.019848906 0.071750551 3946321
0.018399656 -0.016615435 0.071750551 4341065
0.015793122 -0.019354835 0.071750551 3484750
0.017914012 -0.017242372 0.071750551 3613746
0.023606658 0.0010033324 0.061324432 5394501
0.023992956 0.0010033324 0.056111373 3284540
0.024015762 0.0010033324 0.053504847 3287613
0.023612708 0.0010033324 0.061244719 5394244
0.02383478 0.0010033324 0.058717906 4665656
0.019778691 -0.014635846 0.071750551 4002325
0.021006182 -0.012662061 0.071750551 4338749
0.021371454 -0.012029313 0.071750551 5854547
0.022644036 -0.0094227865 0.071750551 5058608
0.023612708 0.0010033324 0.064497545 5460819
0.023573041 0.0010033324 0.063930966 4671302
0.02391009 0.0010033324 0.066537492 6711401
0.02357956 -0.0068162531 0.071750551 4270918
0.023612708 -0.0067074522 0.071750551 4929869
0.024246708 -0.004209727 0.071750551 3411214
0.024658203 0.0010033324 0.071750551 4859441
0.024372064 0.0010033324 0.069144025 3348784
0.024631731 -0.0016031936 0.071750551 5063758
-0.0024525821 0.02185557 0.0083222855 5659753
-0.0024525821 0.011429451 0.0022443514 4539732
-0.0024525821 0.0062163919 0.0018381346 5329498
-0.0024525821 0.016642511 0.0036811791 6119270
-0.0024525821 0.017279759 0.0039807893 6645616
-0.0024525821 0.019249037 0.0052695293 6974830
-0.0024525821 0.020623274 0.0065873191 5855846
-0.0024525821 0.022298582 0.0091938488 4803685
-0.0024525821 0.026237249 0.030046083 3289939
-0.0024525821 0.024710812 0.019619964 4803941
-0.0024525821 0.023899578 0.014406908 3882079
-0.0024525821 0.02325289 0.011800379 5856613
-0.0024525821 0.024359114 0.017013436 5132388
-0.0024525821 0.024462096 0.017735068 4014174
-0.0024525821 0.025618449 0.024833024 3487573
-0.0024525821 0.025129311 0.022226494 4803168
-0.0024525821 0.026017986 0.027439553 3422291
-0.0024525821 0.026448503 0.050898314 2894657
-0.0024525821 0.025880322 0.040472202 2566214
-0.0024525821 0.025621533 0.035259143 6580072
-0.0024525821 0.026039034 0.032652613 3618902
-0.0024525821 0.02553679 0.037865672 4343382
-0.0024525821 0.026353255 0.045685258 3816780
-0.0024525821 0.026275404 0.043078728 2829641
-0.0024525821 0.026353814 0.048291788 2434624
-0.025593191 0.011429451 0.071750551 3618112
-0.027240448 0.0062163919 0.071750551 3419968
-0.027836856 0.0036098585 0.071750551 5000265
-0.026499562 0.0088229179 0.071750551 3947846
-0.025911346 0.010639317 0.071750551 3881285
-0.02330482 0.014978305 0.071750551 4867916
-0.024020936 0.014035977 0.071750551 3749187
-0.014721073 0.02185557 0.071750551 5455936
-0.02194047 0.016642511 0.071750551 3947585
-0.020698287 0.017932184 0.071750551 5526102
-0.019145042 0.019249037 0.071750551 4012863
-0.018091761 0.019979022 0.071750551 5919827
-0.015485227 0.021461748 0.071750551 4339255
-0.0024525821 0.025794812 0.061324432 4143673
-0.0024525821 0.025952689 0.056111373 2960451
-0.0024525821 0.026299179 0.053504847 2894924
-0.0024525821 0.025777273 0.058717906 5459784
-0.012878701 0.02283252 0.071750551 4798519
-0.0024525821 0.02614516 0.066537492 4801603
-0.0024525821 0.025971979 0.063930966 3288628
-0.010272168 0.024142474 0.071750551 4537659
-0.009550795 0.024462096 0.071750551 4008489
-0.0076656416 0.025219291 0.071750551 3882305
-0.0024525821 0.026239097 0.069144025 3421504
-0.0050591081 0.025997929 0.071750551 3749441
-0.0024525821 0.026275344 0.071750551 4140848
0.011765391 0.02185557 0.071750551 4538954
0.018399656 0.016330749 0.071750551 4138548
0.018109091 0.016642511 0.071750551 4334896
0.013186596 0.021015495 0.071750551 4796984
0.015567794 0.019249037 0.071750551 4864831
0.015793122 0.019040488 0.071750551 4930110
0.021827087 0.011429451 0.071750551 4933969
0.024359338 0.0036098585 0.071750551 2959935
0.023834951 0.0062163919 0.071750551 3154999
0.022977732 0.0088229179 0.071750551 0
0.023612708 0.0070324242 0.071750551 3414323
0.020348571 0.014035977 0.071750551 4006447
0.021006182 0.013026804 0.071750551 4202283
0.0079735368 0.023820847 0.071750551 4737111
0.0027604774 0.025443256 0.071750551 4668225
0.0001539439 0.026016146 0.071750551 4144708
0.0062618777 0.024462096 0.071750551 5855579
0.0053670034 0.024740167 0.071750551 5788498
0.010580063 0.022519477 0.071750551 4276042
-0.0024525821 -0.026497751 0.08217667 2434355
-0.0024525821 -0.026413873 0.076963611 3814722
-0.0024525821 -0.026376475 0.074357077 3878197
-0.0024525821 -0.026535291 0.079570137 4143686
-0.0024525821 -0.026465047 0.092602789 3815230
-0.0024525821 -0.026188381 0.08738973 4342089
-0.0024525821 -0.026302349 0.084783196 2433847
-0.0024525821 -0.026284724 0.089996256 2500147
-0.028588496 0.0010033324 0.092602789 5328726
-0.028379366 0.0010033324 0.08217667 4473430
-0.028096709 0.0010033324 0.076963611 5129540
-0.028172124 0.0010033324 0.074357077 4932932
-0.028173856 0.0010033324 0.079570137 4669520
-0.028561704 0.0010033324 0.08738973 4802388
-0.028517876 0.0010033324 0.084425703 4736837
-0.028532922 0.0010033324 0.084783196 5131859
-0.028546922 0.0010033324 0.089996256 5328472
-0.0024525821 -0.026919782 0.11345501 5130060
-0.0024525821 -0.026655499 0.1030289 4013644
-0.0024525821 -0.026754066 0.097815841 4013384
-0.0024525821 -0.026626397 0.095209315 3158078
-0.0024525821 -0.026758082 0.10042237 1974590
-0.0024525821 -0.026600894 0.10824196 4539211
-0.0024525821 -0.026585948 0.10563543 3487040
-0.0024525821 -0.026731543 0.11084849 4670280
-0.02854814 0.0010033324 0.11345501 2823958
-0.028539754 0.0010033324 0.1030289 2566188
-0.028629869 0.0010033324 0.097815841 6249826
-0.028629974 0.0010033324 0.095209315 2895405
-0.028607249 0.0010033324 0.10042237 2039591
-0.028517876 0.0010033324 0.10354713 6184032
-0.028406363 0.0010033324 0.10563543 986645
-0.028299831 0.0010033324 0.10824196 3749701
-0.028517876 0.0010033324 0.1130968 6182746
-0.02835691 0.0010033324 0.11084849 2757138
-0.0024525821 0.0010033324 0.13643707 0
-0.0024525821 -0.02644442 0.12388113 4472905
-0.0024525821 -0.026920628 0.11866808 3813955
-0.0024525821 -0.026975598 0.11606155 5524306
-0.0024525821 -0.026779514 0.12127461 3091781
-0.0024525821 -0.019848906 0.13238834 5328980
-0.0024525821 -0.025061961 0.1281669 4605260
-0.0024525821 -0.025781892 0.12648767 4407108
-0.0024525821 -0.024479754 0.1290942 5328991
-0.0024525821 -0.022455432 0.13102478 6249292
-0.0024525821 -0.02135266 0.13170072 5394244
-0.028383542 0.0010033324 0.12388113 6051153
-0.028617881 0.0010033324 0.11866808 5722192
-0.028670456 0.0010033324 0.11606155 5589578
-0.028517876 0.0010033324 0.12156498 8287856
-0.028525632 0.0010033324 0.12127461 6906720
-0.02330482 0.0010033324 0.13178486 8946816
-0.026618052 0.0010033324 0.1290942 6446681
-0.02788569 0.0010033324 0.12648767 5788239
-0.025911346 0.0010033324 0.12993567 6117718
-0.02346769 0.0010033324 0.13170072 9473417
-0.0024525821 -0.013548411 0.13430725 0
-0.0024525821 -0.014635846 0.1340237 0
-0.0024525821 -0.017242372 0.13326515 0
-0.018091761 0.0010033324 0.13377286 0
-0.020698287 0.0010033324 0.13293289 0
-0.015727125 0.0010033324 0.13430725 0
-0.0024525821 -0.0094227865 0.13513765 0
-0.0024525821 -0.012029313 0.13464552 0
-0.012878701 0.0010033324 0.13479997 0
-0.015485227 0.0010033324 0.1343541 0
-0.0024525821 -0.004209727 0.13595392 0
-0.0024525821 -0.0068162531 0.13557121 0
-0.010272168 0.0010033324 0.13518123 0
-0.0076656416 0.0010033324 0.13561685 0
-0.0024525821 -0.0016031936 0.13627952 0
-0.0050591081 0.0010033324 0.13609928 11118758
0.023924246 0.0010033324 0.092602789 5131088
0.024015985 0.0010033324 0.08217667 2763320
0.024911709 0.0010033324 0.076963611 4465717
0.024884939 0.0010033324 0.074357077 4531764
0.024499238 0.0010033324 0.079570137 4794935
0.023998156 0.0010033324 0.08738973 2763063
0.023872592 0.0010033324 0.084783196 1973313
0.024064414 0.0010033324 0.089996256 4210001
0.024202079 0.0010033324 0.11345501 6972524
0.023709305 0.0010033324 0.1030289 5197142
0.02390638 0.0010033324 0.097815841 4604750
0.023840278 0.0010033324 0.095209315 4736336
0.023813225 0.0010033324 0.10042237 4801870
0.023934521 0.0010033324 0.10824196 2894392
0.023816034 0.0010033324 0.10563543 2894907
0.024043694 0.0010033324 0.11084849 5065041
0.011724316 0.0010033324 0.13430725 0
0.018399656 0.0010033324 0.13172169 6117202
0.013186596 0.0010033324 0.13392948 0
0.015793122 0.0010033324 0.13294363 0
0.023391165 0.0010033324 0.12388113 5721399
0.024228834 0.0010033324 0.11866808 1644344
0.024339281 0.0010033324 0.11606155 1314867
0.023612708 0.0010033324 0.12269504 3354943
0.023856096 0.0010033324 0.12127461 4736345
0.021281339 0.0010033324 0.1290942 5065306
0.022631526 0.0010033324 0.12648767 5589562
0.018439375 0.0010033324 0.13170072 6116945
0.021006182 0.0010033324 0.1294858 4868440
0.0079735368 0.0010033324 0.13496155 0
0.0027604774 0.0010033324 0.13598901 12500913
0.0001539439 0.0010033324 0.1364193 0
0.0053670034 0.0010033324 0.13543174 0
0.010580063 0.0010033324 0.13452516 0
-0.0024525821 0.025068827 0.092602789 4341835
-0.0024525821 0.025603734 0.08217667 5721678
-0.0024525821 0.025790319 0.076963611 4470073
-0.0024525821 0.026102409 0.074357077 4534066
-0.0024525821 0.025606878 0.079570137 6840927
-0.0024525821 0.025475688 0.08738973 4276043
-0.0024525821 0.025576569 0.084783196 5128773
-0.0024525821 0.025303595 0.089996256 4999764
-0.0024525821 0.025573477 0.11345501 4734026
-0.0024525821 0.025992014 0.1030289 5657198
-0.0024525821 0.025232576 0.097815841 3158335
-0.0024525821 0.025000811 0.095209315 4408140
-0.0024525821 0.025656782 0.10042237 3552326
-0.0024525821 0.025689349 0.10824196 3683659
-0.0024525821 0.025950976 0.10563543 3355202
-0.0024525821 0.02552595 0.11084849 4736597
-0.0024525821 0.017408296 0.13430725 0
-0.0024525821 0.02185557 0.13115422 7302762
-0.0024525821 0.021354571 0.13170072 5722960
-0.0024525821 0.019249037 0.1334448 12961473
-0.0024525821 0.025181659 0.12388113 4736600
-0.0024525821 0.025758825 0.11866808 5458001
-0.0024525821 0.025736146 0.11606155 4603209
-0.0024525821 0.02555903 0.12127461 5591125
-0.0024525821 0.023392402 0.1290942 5985624
-0.0024525821 0.024546526 0.12648767 5195859
-0.0024525821 0.024462096 0.12674585 4999248
-0.0024525821 0.011429451 0.13514584 0
-0.0024525821 0.0062163919 0.13596581 0
-0.0024525821 0.0036098585 0.13630879 0
-0.0024525821 0.0088229179 0.13555002 0
-0.0024525821 0.016642511 0.1345135 0
-0.0024525821 0.014035977 0.13487494 0
-0.0087103322 -0.019848906 0.0091938488 7172725
-0.0076656416 -0.020273384 0.0091938488 8092544
-0.0076656416 -0.019848906 0.00846784 5329509
-0.0050591081 -0.021005623 0.0091938488 5330018
-0.0050591081 -0.019848906 0.007365616 5395042
-0.023779545 -0.004209727 0.0091938488 5791077
-0.02330482 -0.0063559189 0.0091938488 5724516
-0.02330482 -0.004209727 0.0082514398 4079966
-0.024134405 -0.0016031936 0.0091938488 5724775
-0.02330482 -0.0016031936 0.0075424667 3685987
-0.014534377 -0.0094227865 0.0039807893 4474196
-0.012878701 -0.010660119 0.0039807893 9605016
-0.012878701 -0.0094227865 0.0035886029 5856359
-0.01369565 -0.014635846 0.0065873191 5395295
-0.012878701 -0.015221864 0.0065873191 5132637
-0.012878701 -0.014635846 0.0060960799 5922155
-0.013140768 -0.017242372 0.0091938488 5987950
-0.012878701 -0.017420925 0.0091938488 5921902
-0.012878701 -0.017242372 0.008921897 5856108
-0.016616419 -0.014635846 0.0091938488 5987942
-0.015485227 -0.01551944 0.0091938488 5790571
-0.015485227 -0.014635846 0.0080012456 5791076
-0.019677863 -0.0094227865 0.0065873191 4145503
-0.018091761 -0.01109194 0.0065873191 4474463
-0.018091761 -0.0094227865 0.0054575726 3355474
-0.01964584 -0.012029313 0.0091938488 6843500
-0.018091761 -0.013427325 0.0091938488 5988454
-0.018091761 -0.012029313 0.007466564 5066069
-0.021926597 -0.0094227865 0.0091938488 4935774
-0.020698287 -0.010963961 0.0091938488 5461610
-0.020698287 -0.0094227865 0.0075813122 4276574
-0.017030746 -0.012029313 0.0065873191 4868189
-0.015485227 -0.013273828 0.0065873191 4935000
-0.015485227 -0.012029313 0.00562484 3947859
-0.012878701 -0.012029313 0.0045337752 4473920
-0.015485227 -0.0094227865 0.0042767245 2632256
-0.0051533356 -0.014635846 0.0039807893 3816013
-0.0076656416 -0.013667859 0.0039807893 5790309
-0.0076656416 -0.0094227865 0.0028802017 5197644
-0.0096894205 -0.017242372 0.0065873191 6711154
-0.0076656416 -0.018265374 0.0065873191 5065822
-0.0076656416 -0.017242372 0.0057690777 4803166
-0.010272168 -0.016908109 0.0065873191 6645105
-0.010272168 -0.014635846 0.0049870107 3882325
-0.0076656416 -0.014635846 0.0043455549 5987438
-0.010272168 -0.019060411 0.0091938488 6185330
-0.010272168 -0.017242372 0.0068980101 7763322
-0.0050591081 -0.019139461 0.0065873191 6250343
-0.0050591081 -0.017242372 0.0051591527 4671580
-0.0050591081 -0.014666289 0.0039807893 3750222
-0.010777242 -0.012029313 0.0039807893 7040120
-0.010272168 -0.012329876 0.0039807893 5921385
-0.018648498 -0.004209727 0.0039807893 3947852
-0.018091761 -0.0053254962 0.0039807893 3553092
-0.018091761 -0.004209727 0.003758627 3948111
-0.012878701 -0.004209727 0.0025778357 9606289
-0.02129519 -0.0068162531 0.0065873191 3552592
-0.020698287 -0.0079854727 0.0065873191 3421007
-0.020698287 -0.0068162531 0.0060309432 3882325
-0.018091761 -0.0068162531 0.0043782573 3882582
-0.022170581 -0.004209727 0.0065873191 5000545
-0.020698287 -0.004209727 0.0051993337 5000797
-0.023171686 -0.0068162531 0.0091938488 5592932
-0.022665009 -0.0016031936 0.0065873191 3619668
-0.020698287 -0.0016031936 0.0047067273 4869209
-0.019485384 -0.0016031936 0.0039807893 4145490
-0.0076656416 -0.004209727 0.0021502683 4869705
-0.013501763 -0.019848906 0.017013436 6119267
-0.012878701 -0.020196386 0.017013436 6645352
-0.012878701 -0.019848906 0.015518362 7303283
-0.014409162 -0.019848906 0.019619964 5197672
-0.012878701 -0.020744279 0.019619964 5856350
-0.011011496 -0.019848906 0.011800379 5527394
-0.010272168 -0.020220999 0.011800379 5593449
-0.010272168 -0.019848906 0.010774408 7238006
-0.0076656416 -0.021298196 0.011800379 7369329
-0.012396052 -0.019848906 0.014406908 7632759
-0.010272168 -0.020892859 0.014406908 7369074
-0.0076656416 -0.021890745 0.014406908 6316908
-0.0050591081 -0.021941863 0.011800379 6185061
-0.0053473711 -0.022455432 0.014406908 4606032
-0.0050591081 -0.022505216 0.014406908 5395547
-0.0050591081 -0.022455432 0.014153492 5264220
-0.010272168 -0.021460984 0.017013436 7369849
-0.0076656416 -0.02243733 0.017013436 2762830
-0.0092068017 -0.022455432 0.019619964 5724515
-0.0076656416 -0.022998847 0.019619964 6974314
-0.0076656416 -0.022455432 0.017092878 5658470
-0.010272168 -0.022016354 0.019619964 5396321
-0.0076075792 -0.022455432 0.017013436 2697039
-0.0050591081 -0.023085576 0.017013436 5724509
-0.0050591081 -0.023652758 0.019619964 5527395
-0.015001856 -0.019848906 0.022226494 5527133
-0.012878701 -0.021115571 0.022226494 6185314
-0.015662238 -0.019848906 0.024833024 4540769
-0.015485227 -0.019962095 0.024833024 3027017
-0.015485227 -0.019848906 0.024262134 3552588
-0.012878701 -0.021393038 0.024833024 6316399
-0.016620755 -0.019848906 0.027439553 4802643
-0.015485227 -0.020530123 0.027439553 6052707
-0.012878701 -0.021780755 0.027439553 5987421
-0.017396815 -0.019848906 0.030046083 4869463
-0.015485227 -0.020988412 0.030046083 5791071
-0.012878701 -0.022158679 0.030046083 5856349
-0.010176152 -0.022455432 0.022226494 4869730
-0.0076656416 -0.023425262 0.022226494 5461347
-0.010272168 -0.022411503 0.022226494 4803680
-0.010630675 -0.022455432 0.024833024 4737899
-0.010272168 -0.022619307 0.024833024 4606314
-0.010272168 -0.022455432 0.02267595 5658468
-0.0076656416 -0.023638047 0.024833024 5856098
-0.0050591081 -0.024061646 0.022226494 5198174
-0.0050591081 -0.024279691 0.024833024 5001311
-0.011256389 -0.022455432 0.027439553 5461093
-0.010272168 -0.022842046 0.027439553 5000797
-0.0076656416 -0.023715489 0.027439553 5921899
-0.012118399 -0.022455432 0.030046083 5198425
-0.010272168 -0.023097031 0.030046083 4409195
-0.0076656416 -0.023803335 0.030046083 6053478
-0.0050591081 -0.02429276 0.027439553 5264736
-0.0050591081 -0.024286624 0.030046083 4935515
-0.023856152 -0.0094227865 0.014406908 6580338
-0.02330482 -0.010383636 0.014406908 7566965
-0.02330482 -0.0094227865 0.012221169 7500405
-0.024294645 -0.0094227865 0.017013436 7171441
-0.02330482 -0.010993853 0.017013436 4145248
-0.024591137 -0.0094227865 0.019619964 5592671
-0.02330482 -0.011314593 0.019619964 4803929
-0.024219915 -0.0068162531 0.011800379 6382185
-0.02330482 -0.0091592669 0.011800379 6579813
-0.02330482 -0.0068162531 0.0094591379 5659238
-0.024801884 -0.004209727 0.011800379 5396067
-0.024930686 -0.0068162531 0.014406908 6053218
-0.025587842 -0.004209727 0.014406908 6843242
-0.025108796 -0.0016031936 0.011800379 5658727
-0.025926918 -0.0016031936 0.014406908 7106671
-0.025911346 -0.0018422231 0.014406908 7106414
-0.025911346 -0.0016031936 0.014356354 7106671
-0.025459431 -0.0068162531 0.017013436 6777197
-0.026225891 -0.004209727 0.017013436 6711660
-0.025911346 -0.0053696036 0.017013436 7040620
-0.025911346 -0.004209727 0.015648771 5527904
-0.025826748 -0.0068162531 0.019619964 6777192
-0.026642054 -0.004209727 0.019619964 6317927
-0.025911346 -0.0065789148 0.019619964 6842987
-0.026704792 -0.0016031936 0.017013436 7106419
-0.027209103 -0.0016031936 0.019619964 6974833
-0.024659071 -0.0094227865 0.022226494 6251115
-0.02330482 -0.011432692 0.022226494 6185322
-0.02471694 -0.0094227865 0.024833024 5527133
-0.02330482 -0.011650026 0.024833024 6053221
-0.023451503 -0.012029313 0.027439553 3224392
-0.02330482 -0.0122656 0.027439553 2830150
-0.02330482 -0.012029313 0.026591223 6184808
-0.025024235 -0.0094227865 0.027439553 6579298
-0.023845449 -0.012029313 0.030046083 5329756
-0.02330482 -0.012912475 0.030046083 6974317
-0.025310844 -0.0094227865 0.030046083 6316383
-0.025974993 -0.0068162531 0.022226494 6580329
-0.025911346 -0.006979011 0.022226494 6514536
-0.025911346 -0.0068162531 0.020602576 5593698
-0.026772562 -0.004209727 0.022226494 6448485
-0.026055224 -0.0068162531 0.024833024 6448487
-0.025911346 -0.0071715117 0.024833024 6711403
-0.026789345 -0.004209727 0.024833024 6448484
-0.02732813 -0.0016031936 0.022226494 6251370
-0.027270656 -0.0016031936 0.024833024 5527648
-0.026248705 -0.0068162531 0.027439553 6119779
-0.025911346 -0.007685326 0.027439553 5658973
-0.026871353 -0.004209727 0.027439553 5987934
-0.026339799 -0.0068162531 0.030046083 5527647
-0.025911346 -0.0080835596 0.030046083 5724765
-0.026874743 -0.004209727 0.030046083 5396063
-0.027207069 -0.0016031936 0.027439553 6251113
-0.027100518 -0.0016031936 0.030046083 6383210
-0.018383287 -0.014635846 0.011800379 6777964
-0.018091761 -0.014872149 0.011800379 6777964
-0.018091761 -0.014635846 0.011287218 6777707
-0.019524977 -0.014635846 0.014406908 5790823
-0.018091761 -0.015825719 0.014406908 5132893
-0.015063919 -0.017242372 0.011800379 6645865
-0.012878701 -0.018759869 0.011800379 7237747
-0.015485227 -0.016927794 0.011800379 6120041
-0.016284443 -0.017242372 0.014406908 5395553
-0.015485227 -0.017839931 0.014406908 5658982
-0.015485227 -0.017242372 0.012590474 5264227
-0.012878701 -0.019579776 0.014406908 7698553
-0.021202922 -0.012029313 0.011800379 6843505
-0.020698287 -0.012547478 0.011800379 7631736
-0.020698287 -0.012029313 0.010814197 7237748
-0.023163483 -0.0094227865 0.011800379 6711398
-0.022100717 -0.012029313 0.014406908 6053989
-0.020698287 -0.013556659 0.014406908 5461857
-0.020155974 -0.014635846 0.017013436 4737887
-0.018091761 -0.016506933 0.017013436 5461859
-0.020425804 -0.014635846 0.019619964 5922408
-0.018091761 -0.016996853 0.019619964 5395809
-0.017206661 -0.017242372 0.017013436 4869471
-0.015485227 -0.018554971 0.017013436 3948125
-0.017826237 -0.017242372 0.019619964 5198430
-0.015485227 -0.01912012 0.019619964 3157844
-0.02252084 -0.012029313 0.017013436 6448491
-0.020698287 -0.014098026 0.017013436 4937045
-0.0227267 -0.012029313 0.019619964 5922145
-0.020698287 -0.01434356 0.019619964 4279384
-0.018249154 -0.017242372 0.022226494 5066075
-0.018091761 -0.017396525 0.022226494 4078935
-0.018091761 -0.017242372 0.021243926 4408667
-0.020669058 -0.014635846 0.022226494 4738396
-0.018812701 -0.017242372 0.024833024 4408914
-0.018091761 -0.017960235 0.024833024 4211799
-0.021104984 -0.014635846 0.024833024 3488339
-0.020698287 -0.015120775 0.024833024 5790057
-0.020698287 -0.014635846 0.022457011 4014425
-0.015485227 -0.019516014 0.022226494 4539476
-0.022850275 -0.012029313 0.022226494 6908784
-0.020698287 -0.014603011 0.022226494 4738396
-0.023052782 -0.012029313 0.024833024 6579815
-0.01956699 -0.017242372 0.027439553 4803160
-0.018091761 -0.018728904 0.027439553 5197916
-0.021676712 -0.014635846 0.027439553 3553362
-0.020698287 -0.015887365 0.027439553 3025733
-0.020159066 -0.017242372 0.030046083 3225163
-0.018091761 -0.019324712 0.030046083 3948370
-0.022153102 -0.014635846 0.030046083 3554130
-0.020698287 -0.016571492 0.030046083 3619153
-0.017522238 -0.019848906 0.032652613 6119266
-0.015485227 -0.021124076 0.032652613 5724764
-0.012878701 -0.022313155 0.032652613 6053219
-0.017154329 -0.019848906 0.035259143 5658974
-0.015485227 -0.020977724 0.035259143 5987422
-0.012878701 -0.022268765 0.035259143 6184544
-0.017070383 -0.019848906 0.037865672 4935255
-0.015485227 -0.020960175 0.037865672 7172211
-0.012878701 -0.022308014 0.037865672 5724767
-0.013163269 -0.022455432 0.040472202 6053470
-0.012878701 -0.022588268 0.040472202 6053214
-0.012878701 -0.022455432 0.03940909 5198162
-0.017493688 -0.019848906 0.040472202 5394778
-0.015485227 -0.021271329 0.040472202 6974058
-0.012512572 -0.022455432 0.032652613 5592668
-0.010272168 -0.023233421 0.032652613 4277079
-0.0076656416 -0.023925681 0.032652613 5066591
-0.012411021 -0.022455432 0.035259143 6316386
-0.010272168 -0.023250353 0.035259143 5921633
-0.0076656416 -0.02404929 0.035259143 5132635
-0.0050591081 -0.024365291 0.032652613 5198172
-0.0050591081 -0.024514049 0.035259143 4934744
-0.0067137331 -0.025061961 0.040472202 4540762
-0.0050591081 -0.025233507 0.040472202 4474193
-0.0050591081 -0.025061961 0.039341364 4079444
-0.012542315 -0.022455432 0.037865672 5395805
-0.010272168 -0.023444742 0.037865672 4869218
-0.0076656416 -0.024376001 0.037865672 4277074
-0.010272168 -0.023893092 0.040472202 4671059
-0.0076656416 -0.024872843 0.040472202 5592413
-0.0050591081 -0.024829701 0.037865672 5527123
-0.018687546 -0.019848906 0.045685258 4868686
-0.018091761 -0.020340998 0.045685258 5855837
-0.018091761 -0.019848906 0.043171499 4934226
-0.013828665 -0.022455432 0.043078728 6710626
-0.012878701 -0.022902746 0.043078728 5658454
-0.018070765 -0.019848906 0.043078728 5526613
-0.015485227 -0.021642551 0.043078728 5724246
-0.014563732 -0.022455432 0.045685258 5921369
-0.012878701 -0.023274545 0.045685258 5658196
-0.015485227 -0.022001568 0.045685258 5987163
-0.019196793 -0.019848906 0.048291788 4144971
-0.018091761 -0.020727944 0.048291788 5460050
-0.019330129 -0.019848906 0.050898314 3487041
-0.018091761 -0.020770449 0.050898314 4210766
-0.01522769 -0.022455432 0.048291788 6973802
-0.012878701 -0.02363107 0.048291788 4275783
-0.015485227 -0.02232172 0.048291788 3948089
-0.015258022 -0.022455432 0.050898314 5263708
-0.012878701 -0.023652647 0.050898314 3750712
-0.015485227 -0.022332847 0.050898314 5461082
-0.0082504004 -0.025061961 0.043078728 5460313
-0.0076656416 -0.02522077 0.043078728 5460573
-0.0076656416 -0.025061961 0.041702628 4539476
-0.009002462 -0.025061961 0.045685258 6970714
-0.0076656416 -0.025457632 0.045685258 5261393
-0.0050591081 -0.025587276 0.043078728 5263956
-0.0050591081 -0.025846422 0.045685258 5198159
-0.010272168 -0.024241038 0.043078728 4671310
-0.010272168 -0.024550185 0.045685258 4803408
-0.0093151927 -0.025061961 0.048291788 3816266
-0.0076656416 -0.025484543 0.048291788 5459288
-0.0087161288 -0.025061961 0.050898314 5393747
-0.0076656416 -0.025298443 0.050898314 5131346
-0.0050591081 -0.025894884 0.048291788 4802638
-0.0050591081 -0.025794446 0.050898314 3947079
-0.010272168 -0.024744831 0.048291788 4737103
-0.010272168 -0.024645541 0.050898314 4802637
-0.024039164 -0.012029313 0.032652613 6184798
-0.02330482 -0.013204053 0.032652613 5921371
-0.025407881 -0.0094227865 0.032652613 6381920
-0.024046987 -0.012029313 0.035259143 4803413
-0.02330482 -0.013166793 0.035259143 5263959
-0.025386523 -0.0094227865 0.035259143 6184541
-0.024124105 -0.012029313 0.037865672 4934741
-0.02330482 -0.013199106 0.037865672 6513510
-0.025472645 -0.0094227865 0.037865672 6513762
-0.024376411 -0.012029313 0.040472202 4671826
-0.02330482 -0.013488911 0.040472202 5921637
-0.025724534 -0.0094227865 0.040472202 5723992
-0.026245873 -0.0068162531 0.032652613 5396318
-0.025911346 -0.008050777 0.032652613 6118753
-0.026708819 -0.004209727 0.032652613 5724252
-0.026129607 -0.0068162531 0.035259143 4869720
-0.025911346 -0.0077744275 0.035259143 6645091
-0.026547793 -0.004209727 0.035259143 5790556
-0.026907884 -0.0016031936 0.032652613 6316385
-0.026761979 -0.0016031936 0.035259143 5132380
-0.026194144 -0.0068162531 0.037865672 4803928
-0.025911346 -0.0080647916 0.037865672 6711140
-0.02660159 -0.004209727 0.037865672 4935254
-0.026450604 -0.0068162531 0.040472202 4737875
-0.025911346 -0.0089141428 0.040472202 6644323
-0.026828971 -0.004209727 0.040472202 6119004
-0.026872426 -0.0016031936 0.037865672 3357001
-0.027136736 -0.0016031936 0.040472202 5987678
-0.024515301 -0.012029313 0.043078728 5395285
-0.02330482 -0.013822593 0.043078728 5066331
-0.025806993 -0.0094227865 0.043078728 3422269
-0.024653248 -0.012029313 0.045685258 5000271
-0.02330482 -0.014229 0.045685258 6381666
-0.025867686 -0.0094227865 0.045685258 5658456
-0.023419585 -0.014635846 0.048291788 4737866
-0.02330482 -0.01480455 0.048291788 4606289
-0.02330482 -0.014635846 0.047593389 3882313
-0.023836341 -0.014635846 0.050898314 4013376
-0.02330482 -0.015387535 0.050898314 3881542
-0.025029946 -0.012029313 0.048291788 3487572
-0.026206732 -0.0094227865 0.048291788 4539209
-0.025911346 -0.010180205 0.048291788 4474186
-0.025911346 -0.0094227865 0.04617342 6315876
-0.025396679 -0.012029313 0.050898314 7040112
-0.026472263 -0.0094227865 0.050898314 4079182
-0.025911346 -0.010918565 0.050898314 3025736
-0.026601583 -0.0068162531 0.043078728 6053210
-0.025911346 -0.0091589242 0.043078728 3948356
-0.027009495 -0.004209727 0.043078728 5066320
-0.026703916 -0.0068162531 0.045685258 5790038
-0.025911346 -0.00931146 0.045685258 5131856
-0.027184762 -0.004209727 0.045685258 5329745
-0.02731432 -0.0016031936 0.043078728 5526356
-0.027489647 -0.0016031936 0.045685258 5658197
-0.026952777 -0.0068162531 0.048291788 5592148
-0.027368665 -0.004209727 0.048291788 5198160
-0.027116973 -0.0068162531 0.050898314 4472391
-0.027478676 -0.004209727 0.050898314 4143939
-0.027668092 -0.0016031936 0.048291788 5855576
-0.027816724 -0.0016031936 0.050898314 4603719
-0.020290844 -0.017242372 0.032652613 4539992
-0.018091761 -0.019410275 0.032652613 5856351
-0.022333227 -0.014635846 0.032652613 4539988
-0.020698287 -0.016757011 0.032652613 5526623
-0.020025887 -0.017242372 0.035259143 3356746
-0.018091761 -0.019095927 0.035259143 4145492
-0.022236526 -0.014635846 0.035259143 3488078
-0.020698287 -0.016500287 0.035259143 3882834
-0.019844636 -0.017242372 0.037865672 4737364
-0.018091761 -0.018981472 0.037865672 4342863
-0.022144713 -0.014635846 0.037865672 4737625
-0.020698287 -0.016297661 0.037865672 6184551
-0.020072699 -0.017242372 0.040472202 3553358
-0.018091761 -0.019315965 0.040472202 4671058
-0.022317223 -0.014635846 0.040472202 3684939
-0.020698287 -0.016501106 0.040472202 3947597
-0.020583622 -0.017242372 0.043078728 2895175
-0.018091761 -0.01983048 0.043078728 5000019
-0.022668995 -0.014635846 0.043078728 4474191
-0.020698287 -0.017100714 0.043078728 4013384
-0.021134771 -0.017242372 0.045685258 5131347
-0.020698287 -0.017790332 0.045685258 4671053
-0.020698287 -0.017242372 0.043586936 3093072
-0.023025952 -0.014635846 0.045685258 6447710
-0.021548457 -0.017242372 0.048291788 5329241
-0.020698287 -0.018310808 0.048291788 3882059
-0.021837965 -0.017242372 0.050898314 4605258
-0.020698287 -0.018543899 0.050898314 4341578
-0.019095398 -0.019848906 0.053504847 4342088
-0.018091761 -0.020554084 0.053504847 4276553
-0.018883944 -0.019848906 0.056111373 5263172
-0.018091761 -0.020438395 0.056111373 5065545
-0.014978543 -0.022455432 0.053504847 4144965
-0.012878701 -0.023543272 0.053504847 8027780
-0.015485227 -0.022166733 0.053504847 5263702
-0.015046947 -0.022455432 0.056111373 4013633
-0.012878701 -0.023639064 0.056111373 4803916
-0.015485227 -0.022188738 0.056111373 4737100
-0.018803649 -0.019848906 0.058717906 4011066
-0.018091761 -0.020453524 0.058717906 3550258
-0.018798158 -0.019848906 0.061324432 3352117
-0.018091761 -0.020517636 0.061324432 2957103
-0.015378214 -0.022455432 0.058717906 2171185
-0.012878701 -0.023924883 0.058717906 6372927
-0.015485227 -0.022385839 0.058717906 2236980
-0.01568716 -0.022455432 0.061324432 2632247
-0.015485227 -0.022595685 0.061324432 2631991
-0.015485227 -0.022455432 0.059563205 4404541
-0.012878701 -0.024218641 0.061324432 2895418
-0.0082886294 -0.025061961 0.053504847 5327949
-0.0076656416 -0.025210869 0.053504847 4998727
-0.0088883117 -0.025061961 0.056111373 3948091
-0.0076656416 -0.025345191 0.056111373 4999762
-0.0050591081 -0.02576853 0.053504847 4605517
-0.0050591081 -0.0258337 0.056111373 4342346
-0.010272168 -0.024535779 0.053504847 4469075
-0.010272168 -0.024679374 0.056111373 3684419
-0.010166526 -0.025061961 0.058717906 1645111
-0.0076656416 -0.025627449 0.058717906 2957359
-0.011025771 -0.025061961 0.061324432 4013647
-0.010272168 -0.025309514 0.061324432 2566204
-0.010272168 -0.025061961 0.058937006 3087656
-0.0076656416 -0.025848262 0.061324432 2824745
-0.0050591081 -0.025984593 0.058717906 2368819
-0.0050591081 -0.026188452 0.061324432 3090997
-0.010272168 -0.025029428 0.058717906 1513524
-0.019015528 -0.019848906 0.063930966 3157301
-0.018091761 -0.020750679 0.063930966 3945526
-0.019354433 -0.019848906 0.066537492 3815993
-0.018091761 -0.021099787 0.066537492 3026747
-0.01595214 -0.022455432 0.063930966 3684685
-0.015485227 -0.022773851 0.063930966 3222840
-0.012878701 -0.024373051 0.063930966 2960955
-0.016314335 -0.022455432 0.066537492 4407387
-0.015485227 -0.022986144 0.066537492 2039609
-0.012878701 -0.024451632 0.066537492 2895162
-0.019614153 -0.019848906 0.069144025 1447474
-0.018091761 -0.021365721 0.069144025 2434363
-0.016632468 -0.022455432 0.069144025 4998229
-0.015485227 -0.02315414 0.069144025 3153970
-0.012878701 -0.024437919 0.069144025 2763063
-0.011327684 -0.025061961 0.063930966 3421275
-0.010272168 -0.025393955 0.063930966 3157820
-0.0076656416 -0.025917437 0.063930966 2565956
-0.01140485 -0.025061961 0.066537492 3946849
-0.010272168 -0.025417134 0.066537492 3157819
-0.0076656416 -0.025967762 0.066537492 2302271
-0.0050591081 -0.026304848 0.063930966 2829112
-0.0050591081 -0.026317246 0.066537492 3486527
-0.011151433 -0.025061961 0.069144025 9342347
-0.010272168 -0.025332384 0.069144025 3092282
-0.0076656416 -0.025962599 0.069144025 4075578
-0.0050591081 -0.026301444 0.069144025 3877682
-0.024047919 -0.014635846 0.053504847 4078662
-0.02330482 -0.015675351 0.053504847 3947079
-0.02393594 -0.014635846 0.056111373 2829116
-0.02330482 -0.015522979 0.056111373 4013376
-0.025490608 -0.012029313 0.053504847 2434352
-0.026469477 -0.0094227865 0.053504847 4408916
-0.025911346 -0.011024073 0.053504847 4210509
-0.025406197 -0.012029313 0.056111373 2698288
-0.026389338 -0.0094227865 0.056111373 3816517
-0.025911346 -0.01083076 0.056111373 4078666
-0.023617189 -0.014635846 0.058717906 3026480
-0.02330482 -0.015055321 0.058717906 2960944
-0.023378495 -0.014635846 0.061324432 3878445
-0.02330482 -0.014730111 0.061324432 3878444
-0.025270164 -0.012029313 0.058717906 3355445
-0.026272763 -0.0094227865 0.058717906 3947845
-0.025911346 -0.010562032 0.058717906 2894649
-0.025158335 -0.012029313 0.061324432 3947846
-0.026163798 -0.0094227865 0.061324432 1907509
-0.025911346 -0.010285899 0.061324432 2170929
-0.027126763 -0.0068162531 0.053504847 3749700
-0.027597867 -0.004209727 0.053504847 5394770
-0.027081303 -0.0068162531 0.056111373 4079427
-0.027689438 -0.004209727 0.056111373 5263694
-0.028016061 -0.0016031936 0.053504847 5460306
-0.028154969 -0.0016031936 0.056111373 5460819
-0.026952475 -0.0068162531 0.058717906 3092283
-0.027633332 -0.004209727 0.058717906 4013379
-0.026809469 -0.0068162531 0.061324432 3815491
-0.027475104 -0.004209727 0.061324432 4079173
-0.028122287 -0.0016031936 0.058717906 4406069
-0.027984347 -0.0016031936 0.061324432 3618381
-0.023428947 -0.014635846 0.063930966 3221554
-0.02330482 -0.014795378 0.063930966 3090222
-0.023648057 -0.014635846 0.066537492 5064765
-0.02330482 -0.01507207 0.066537492 5130812
-0.025222406 -0.012029313 0.063930966 3223357
-0.026255153 -0.0094227865 0.063930966 3487052
-0.025911346 -0.010521784 0.063930966 2697279
-0.025433518 -0.012029313 0.066537492 5000266
-0.026556391 -0.0094227865 0.066537492 2960703
-0.025911346 -0.011094354 0.066537492 3947082
-0.023958165 -0.014635846 0.069144025 5131592
-0.02330482 -0.015423782 0.069144025 5131077
-0.025649674 -0.012029313 0.069144025 3815496
-0.026823565 -0.0094227865 0.069144025 4868681
-0.025911346 -0.011516176 0.069144025 3816266
-0.026852317 -0.0068162531 0.063930966 2698041
-0.027400207 -0.004209727 0.063930966 3026494
-0.027152497 -0.0068162531 0.066537492 4802633
-0.027550656 -0.004209727 0.066537492 3618626
-0.027882714 -0.0016031936 0.063930966 3616316
-0.027932853 -0.0016031936 0.066537492 3617334
-0.027487136 -0.0068162531 0.069144025 3816517
-0.027844001 -0.004209727 0.069144025 3750208
-0.028116629 -0.0016031936 0.069144025 4737096
-0.021950573 -0.017242372 0.053504847 6117718
-0.020698287 -0.018491626 0.053504847 3947333
-0.021804512 -0.017242372 0.056111373 2828854
-0.020698287 -0.018313512 0.056111373 4737092
-0.021471724 -0.017242372 0.058717906 5131327
-0.020698287 -0.018060207 0.058717906 3683383
-0.021257713 -0.017242372 0.061324432 2697267
-0.020698287 -0.017881721 0.061324432 3092280
-0.02134227 -0.017242372 0.063930966 2959917
-0.020698287 -0.018009268 0.063930966 4736050
-0.021545812 -0.017242372 0.066537492 3158081
-0.020698287 -0.018287361 0.066537492 3618355
-0.021738902 -0.017242372 0.069144025 3881548
-0.020698287 -0.018539615 0.069144025 3289922
-0.019294605 -0.019848906 0.074357077 3352627
-0.018091761 -0.021003939 0.074357077 2762294
-0.019272529 -0.019848906 0.076963611 3351084
-0.018091761 -0.020869792 0.076963611 2690846
-0.016204678 -0.022455432 0.074357077 2433339
-0.015485227 -0.022904336 0.074357077 3022641
-0.012878701 -0.024133269 0.074357077 2893618
-0.01616472 -0.022455432 0.076963611 3811376
-0.015485227 -0.02295455 0.076963611 3679792
-0.012878701 -0.024339221 0.076963611 2368579
-0.019685917 -0.019848906 0.079570137 2302766
-0.018091761 -0.021025904 0.079570137 2631225
-0.019993596 -0.019848906 0.08217667 1973805
-0.018091761 -0.021157879 0.08217667 2763829
-0.016157337 -0.022455432 0.079570137 2763075
-0.015485227 -0.022929754 0.079570137 2499649
-0.012878701 -0.02436794 0.079570137 2565701
-0.016034052 -0.022455432 0.08217667 2368064
-0.015485227 -0.022784721 0.08217667 2236479
-0.012878701 -0.024114016 0.08217667 3947344
-0.010272168 -0.025061961 0.0720217 4268332
-0.010027215 -0.025061961 0.074357077 3879480
-0.0076656416 -0.025702257 0.074357077 5259075
-0.010658331 -0.025061961 0.076963611 6838616
-0.010272168 -0.025167819 0.076963611 4010809
-0.010272168 -0.025061961 0.075763457 4340290
-0.0076656416 -0.0257474 0.076963611 4341074
-0.0050591081 -0.026199188 0.074357077 4862003
-0.0050591081 -0.026168849 0.076963611 3421502
-0.010272168 -0.02498826 0.074357077 4011066
-0.010975778 -0.025061961 0.079570137 4537155
-0.010272168 -0.025279183 0.079570137 4339519
-0.0076656416 -0.025887523 0.079570137 4407893
-0.010282487 -0.025061961 0.08217667 4473415
-0.010272168 -0.025065303 0.08217667 4473672
-0.0076656416 -0.025775623 0.08217667 4078672
-0.0050591081 -0.026287824 0.079570137 1512997
-0.0050591081 -0.026243225 0.08217667 1974060
-0.019949697 -0.019848906 0.084783196 2302768
-0.018091761 -0.02113317 0.084783196 2829111
-0.019808218 -0.019848906 0.08738973 2039854
-0.018091761 -0.02108885 0.08738973 4342340
-0.015888706 -0.022455432 0.084783196 2039869
-0.015485227 -0.02267867 0.084783196 3355229
-0.012878701 -0.023872044 0.084783196 2433605
-0.015998952 -0.022455432 0.08738973 3749965
-0.015485227 -0.022755209 0.08738973 3683918
-0.012878701 -0.023914833 0.08738973 2368325
-0.020046815 -0.019848906 0.089996256 1645098
-0.018091761 -0.021300945 0.089996256 3355454
-0.020400472 -0.019848906 0.092602789 2828648
-0.018091761 -0.021605127 0.092602789 3420987
-0.016425729 -0.022455432 0.089996256 4802381
-0.015485227 -0.023038171 0.089996256 3025975
-0.012878701 -0.024227578 0.089996256 2368839
-0.016806491 -0.022455432 0.092602789 8091509
-0.015485227 -0.023240332 0.092602789 4933968
-0.012878701 -0.024461262 0.092602789 723735
-0.010272168 -0.025061961 0.082199089 4473670
-0.0089704096 -0.025061961 0.084783196 5723740
-0.0076656416 -0.025405899 0.084783196 3355702
-0.0085562691 -0.025061961 0.08738973 5000010
-0.0076656416 -0.025280327 0.08738973 3947603
-0.0050591081 -0.025972288 0.084783196 1052195
-0.0050591081 -0.025842391 0.08738973 3815745
-0.010272168 -0.024700861 0.084783196 3881038
-0.010272168 -0.024642657 0.08738973 5460845
-0.0099268481 -0.025061961 0.089996256 4933706
-0.0076656416 -0.025574382 0.089996256 3683921
-0.011205174 -0.025061961 0.092602789 2302827
-0.010272168 -0.02537084 0.092602789 3486547
-0.010272168 -0.025061961 0.090500094 2434411
-0.0076656416 -0.026021719 0.092602789 3815766
-0.0050591081 -0.026031617 0.089996256 723233
-0.0050591081 -0.026345506 0.092602789 2236974
-0.010272168 -0.024975982 0.089996256 4736370
-0.024241351 -0.014635846 0.074357077 4799549
-0.02330482 -0.015658401 0.074357077 4208443
-0.024340622 -0.014635846 0.076963611 4468533
-0.02330482 -0.015923984 0.076963611 4142907
-0.025780786 -0.012029313 0.074357077 5192254
-0.026812151 -0.0094227865 0.074357077 4735050
-0.025911346 -0.011727966 0.074357077 5323838
-0.02588274 -0.012029313 0.076963611 4209741
-0.027016621 -0.0094227865 0.076963611 3750214
-0.025911346 -0.01196894 0.076963611 4407119
-0.024489112 -0.014635846 0.079570137 7432043
-0.02330482 -0.016350567 0.079570137 5195851
-0.024363037 -0.014635846 0.08217667 2500409
-0.02330482 -0.016377911 0.08217667 3683138
-0.026006471 -0.012029313 0.079570137 4274762
-0.025911346 -0.012209624 0.079570137 4209226
-0.025911346 -0.012029313 0.077279083 4210007
-0.027288195 -0.0094227865 0.079570137 7297371
-0.025911346 -0.012029313 0.081891075 5785934
-0.025886942 -0.012029313 0.08217667 4469310
-0.027257998 -0.0094227865 0.08217667 5392463
-0.025911346 -0.011987083 0.08217667 4469310
-0.027496319 -0.0068162531 0.074357077 3025206
-0.027907938 -0.004209727 0.074357077 4407875
-0.027772851 -0.0068162531 0.076963611 2696501
-0.028048292 -0.004209727 0.076963611 4734784
-0.028176181 -0.0016031936 0.074357077 4144195
-0.02812276 -0.0016031936 0.076963611 3813429
-0.02812162 -0.0068162531 0.079570137 4670790
-0.028346382 -0.004209727 0.079570137 4539206
-0.028140828 -0.0068162531 0.08217667 3815739
-0.02845927 -0.004209727 0.08217667 3947336
-0.028298669 -0.0016031936 0.079570137 3487027
-0.028504279 -0.0016031936 0.08217667 4210762
-0.024145119 -0.014635846 0.084783196 4211029
-0.02330482 -0.016099311 0.084783196 4341332
-0.023958676 -0.014635846 0.08738973 4144728
-0.02330482 -0.015855171 0.08738973 3355215
-0.025673069 -0.012029313 0.084783196 4013400
-0.027108841 -0.0094227865 0.084783196 8025715
-0.025911346 -0.011630721 0.084783196 4144728
-0.025395084 -0.012029313 0.08738973 3815249
-0.026843444 -0.0094227865 0.08738973 5065040
-0.025911346 -0.011132672 0.08738973 5722967
-0.023898639 -0.014635846 0.089996256 3881812
-0.02330482 -0.015915163 0.089996256 2039367
-0.02392754 -0.014635846 0.092602789 3289680
-0.02330482 -0.016035967 0.092602789 3092050
-0.025190279 -0.012029313 0.089996256 5328208
-0.026587512 -0.0094227865 0.089996256 4934222
-0.025911346 -0.010705173 0.089996256 3421241
-0.025217772 -0.012029313 0.092602789 6184287
-0.026624527 -0.0094227865 0.092602789 4867931
-0.025911346 -0.010775551 0.092602789 4868423
-0.028006624 -0.0068162531 0.084783196 2631728
-0.028374646 -0.004209727 0.084783196 3289416
-0.027826205 -0.0068162531 0.08738973 4079425
-0.028289087 -0.004209727 0.08738973 3947080
-0.028559946 -0.0016031936 0.084783196 4605262
-0.028517876 -0.0022625029 0.084783196 4342079
-0.028517876 -0.0016031936 0.082484037 6380906
-0.028560095 -0.0016031936 0.08738973 5131606
-0.028517876 -0.002077423 0.08738973 6447219
-0.028547004 -0.004209727 0.092602789 4211012
-0.028517876 -0.0043491349 0.092602789 3552582
-0.028517876 -0.004209727 0.09193451 3750218
-0.027719826 -0.0068162531 0.089996256 3750207
-0.028393261 -0.004209727 0.089996256 3289413
-0.027798917 -0.0068162531 0.092602789 2960446
-0.028669693 -0.0016031936 0.089996256 4407118
-0.028517876 -0.0034120008 0.089996256 3486301
-0.028813668 -0.0016031936 0.092602789 5394007
-0.021706589 -0.017242372 0.074357077 3683647
-0.020698287 -0.018329985 0.074357077 2760239
-0.022084862 -0.017242372 0.076963611 6775903
-0.020698287 -0.018585049 0.076963611 4202548
-0.02258718 -0.017242372 0.079570137 4669781
-0.020698287 -0.019069716 0.079570137 3422028
-0.022694968 -0.017242372 0.08217667 3551554
-0.020698287 -0.019301377 0.08217667 2629169
-0.022550419 -0.017242372 0.084783196 3618128
-0.020698287 -0.01924441 0.084783196 2499640
-0.022432119 -0.017242372 0.08738973 2763090
-0.020698287 -0.019135155 0.08738973 2368315
-0.022550419 -0.017242372 0.089996256 2104907
-0.020698287 -0.01932776 0.089996256 1644342
-0.022655204 -0.017242372 0.092602789 3091309
-0.020698287 -0.019591488 0.092602789 2500159
-0.020459749 -0.019848906 0.095209315 3289673
-0.018091761 -0.021757767 0.095209315 3421502
-0.020322405 -0.019848906 0.097815841 3025257
-0.018091761 -0.021727245 0.097815841 4078662
-0.017030895 -0.022455432 0.095209315 4407884
-0.015485227 -0.023337029 0.095209315 4736334
-0.012878701 -0.024568513 0.095209315 527122
-0.017073818 -0.022455432 0.097815841 3223354
-0.015485227 -0.023406196 0.097815841 4999760
-0.012878701 -0.02467747 0.097815841 2828847
-0.020077735 -0.019848906 0.10042237 5131117
-0.018091761 -0.021544203 0.10042237 2566214
-0.019864149 -0.019848906 0.1030289 3158341
-0.018091761 -0.021380454 0.1030289 3552839
-0.016922951 -0.022455432 0.10042237 3223610
-0.015485227 -0.023421906 0.10042237 3552596
-0.012878701 -0.024804965 0.10042237 3158064
-0.016770989 -0.022455432 0.1030289 3486523
-0.015485227 -0.023407847 0.1030289 5328210
-0.012878701 -0.024882689 0.1030289 2500134
-0.011708833 -0.025061961 0.095209315 2171241
-0.010272168 -0.025645543 0.095209315 4210779
-0.0076656416 -0.026376128 0.095209315 4276312
-0.012013368 -0.025061961 0.097815841 9934484
-0.010272168 -0.025794614 0.097815841 4604999
-0.0076656416 -0.026545517 0.097815841 2170951
-0.0050591081 -0.026623875 0.095209315 1973801
-0.0050591081 -0.026812918 0.097815841 1447464
-0.012286976 -0.025061961 0.10042237 2171171
-0.010272168 -0.025816936 0.10042237 5395024
-0.0076656416 -0.026473735 0.10042237 2040135
-0.012441352 -0.025061961 0.1030289 2171203
-0.010272168 -0.025765158 0.1030289 5394510
-0.0076656416 -0.026319113 0.1030289 4276312
