# .PCD v0.7 - Point Cloud Data file format
VERSION 0.7
FIELDS x y z
SIZE 4 4 4
TYPE F F F
COUNT 1 1 1
WIDTH 1304
HEIGHT 1
VIEWPOINT 0 0 0 1 0 0 0
POINTS 1304
DATA ascii
-0.014743507 0.0015011504 0.13739318
-0.014843524 0.00084935874 0.13739839
-0.015037239 -0.00045526773 0.13740858
-0.01519537 -0.0017657652 0.13741758
-0.015338898 -0.0030788481 0.13742606
-0.015476406 -0.0043931827 0.13743435
-0.015589476 -0.0057118982 0.13744178
-0.01568538 -0.0070339069 0.13744865
-0.015761971 -0.008359693 0.13745484
-0.015815914 -0.0096899197 0.13746026
-0.015736759 -0.010373913 0.13745934
-0.015645504 -0.011731036 0.1374598
-0.015617728 -0.0130779 0.13746242
-0.015632093 -0.014417991 0.13746651
-0.015511274 -0.015783653 0.13746595
-0.0155586 -0.017119348 0.13747117
-0.015605688 -0.018455714 0.13747638
-0.01564014 -0.019795105 0.13748115
-0.015672863 -0.021135464 0.13748586
-0.015479326 -0.022520214 0.13748285
-0.015394688 -0.023210794 0.13748175
-0.015164018 -0.024605125 0.13747746
-0.015159905 -0.025956258 0.13748091
-0.014611304 -0.027417094 0.13746578
-0.0091654658 0.024706282 0.13581455
-0.0095785856 0.023426205 0.1358327
-0.0098074079 0.022789292 0.13584258
-0.010130107 0.021498747 0.13585745
-0.010442257 0.020207256 0.13587192
-0.010814548 0.018924177 0.13588858
-0.011045814 0.017622694 0.13590012
-0.011406779 0.016339056 0.13591637
-0.011702597 0.015046962 0.13593026
-0.011987686 0.013753712 0.13594377
-0.012289107 0.012463085 0.13595784
-0.012567461 0.011836216 0.13596952
-0.012953877 0.010558732 0.13598667
-0.013269484 0.0092715099 0.13600126
-0.013557553 0.0079806 0.13601486
-0.013828933 0.0066874772 0.13602786
-0.014071226 0.0053901598 0.13603981
-0.014331639 0.0040957928 0.1360524
-0.014557242 0.0027961731 0.13606374
-0.014672816 0.0021468252 0.13606952
-0.014871478 0.00084303319 0.13607988
-0.015049577 -0.00046411157 0.13608949
-0.015217125 -0.0017730892 0.13609874
-0.015359223 -0.0030864179 0.13610704
-0.01549387 -0.0044012293 0.1361151
-0.015601814 -0.0057208315 0.13612218
-0.015694261 -0.007043466 0.13612872
-0.015767515 -0.0083698481 0.13613455
-0.015819609 -0.0097004399 0.13613962
-0.015738428 -0.01038482 0.13613829
-0.015746653 -0.011724308 0.13614178
-0.015739202 -0.013067365 0.1361447
-0.01562649 -0.014430374 0.1361438
-0.015665412 -0.01576674 0.13614842
-0.015717804 -0.017101273 0.1361535
-0.015597582 -0.018468753 0.13615237
-0.015633225 -0.019807965 0.13615686
-0.015451849 -0.021189347 0.13615352
-0.015470743 -0.022533521 0.13615739
-0.015147269 -0.023270532 0.13614734
-0.014891982 -0.024670213 0.13614133
-0.014891684 -0.026021183 0.13614453
-0.014298975 -0.027491406 0.13612637
-0.0092642307 0.024713606 0.13515666
-0.0096684694 0.023432568 0.13517468
-0.0098909736 0.02279494 0.13518444
-0.010207832 0.021503769 0.13519919
-0.010514736 0.020211712 0.13521358
-0.010881364 0.018927991 0.13523018
-0.011113167 0.01762668 0.13524178
-0.011480987 0.016338974 0.13459778
-0.011774659 0.015046678 0.13461174
-0.012058198 0.013753302 0.13462533
-0.012413859 0.012470491 0.13464166
-0.012674212 0.011841133 0.13465297
-0.013010383 0.010556504 0.13466854
-0.013319194 0.0092683509 0.1346831
-0.013600171 0.0079764351 0.13469659
-0.013864756 0.0066823214 0.13470945
-0.014103889 0.005384542 0.13472134
-0.014361918 0.0040898174 0.13473395
-0.014584959 0.0027898103 0.13474523
-0.014698327 0.0021401197 0.13475093
-0.014895201 0.0008360371 0.13476123
-0.015070736 -0.00047151744 0.13477069
-0.015234053 -0.0017811954 0.13477969
-0.015375078 -0.0030947179 0.13478786
-0.01550746 -0.0044099316 0.13479568
-0.015612125 -0.0057301149 0.13480246
-0.015700996 -0.0070533901 0.13480864
-0.015771091 -0.0083803535 0.1348141
-0.015821397 -0.0097113028 0.13481881
-0.015738189 -0.010396071 0.13481706
-0.015744269 -0.011735976 0.13482009
-0.015732646 -0.013079852 0.13482246
-0.015762866 -0.014416948 0.13482641
-0.015657127 -0.015779674 0.1348252
-0.015708685 -0.017114416 0.13482997
-0.015759647 -0.018449873 0.13483471
-0.01562494 -0.019821092 0.1348324
-0.015655756 -0.021161959 0.13483639
-0.015461624 -0.022546947 0.13483182
-0.015138626 -0.023283914 0.13482097
-0.014883697 -0.024683595 0.1348141
-0.014884472 -0.026034415 0.13481696
-0.014593244 -0.027444407 0.13480872
-0.009437561 0.024725251 0.13384044
-0.009758532 0.023433976 0.13385557
-0.0099750161 0.022795632 0.13386533
-0.010286391 0.021503866 0.13388008
-0.010588288 0.020211257 0.13389444
-0.010945797 0.018926419 0.13391101
-0.011177659 0.017625198 0.13392264
-0.011524618 0.016339824 0.13393879
-0.011814475 0.015047066 0.13395269
-0.012096405 0.013753504 0.1339663
-0.012295544 0.013115071 0.13397536
-0.012704015 0.011840224 0.13399389
-0.013034403 0.010554783 0.13400939
-0.01333648 0.0092656538 0.13402376
-0.013624191 0.0079694837 0.13337764
-0.01388216 0.0066743717 0.13339034
-0.014116704 0.005375877 0.13340211
-0.014370918 0.0040805414 0.13341467
-0.014593005 0.0027803555 0.13342594
-0.014705777 0.0021305531 0.13343164
-0.014904141 0.00082667917 0.13344197
-0.015077293 -0.00048130006 0.13345128
-0.015239656 -0.0017911643 0.13346018
-0.015380383 -0.0031047687 0.1334682
-0.015511155 -0.0044202879 0.13347584
-0.015639722 -0.0057364702 0.13348337
-0.015701234 -0.007064417 0.13348824
-0.015770733 -0.0083915368 0.13349342
-0.015717626 -0.0090705827 0.1334925
-0.015736699 -0.010407522 0.13349569
-0.01574111 -0.011747792 0.13349828
-0.01572907 -0.013091788 0.1335002
-0.015759349 -0.014428928 0.13350382
-0.015807271 -0.015763506 0.13350816
-0.015863955 -0.017097071 0.13351284
-0.015754879 -0.01846227 0.1335109
-0.015622675 -0.019833073 0.13350806
-0.015654564 -0.021173775 0.13351175
-0.015461683 -0.022558615 0.13350648
-0.015138149 -0.023295686 0.13349479
-0.014882207 -0.024695635 0.13348702
-0.014597297 -0.026103094 0.13347809
-0.014286816 -0.027517557 0.13346815
-0.01427573 -0.028873563 0.13347015
-0.0094432235 0.024716012 0.13251792
-0.0098288059 0.023432873 0.1325359
-0.01004076 0.022793993 0.13254568
-0.010411918 0.021510042 0.13256308
-0.01070869 0.020216957 0.13257743
-0.011000156 0.018923506 0.13259156
-0.011289656 0.017630115 0.13260561
-0.011572599 0.016336158 0.1326194
-0.011859536 0.015043028 0.13263334
-0.012138844 0.013749145 0.13264698
-0.012387216 0.013117701 0.13265823
-0.01274091 0.011835121 0.1326749
-0.013066232 0.010548979 0.13269043
-0.013362646 0.0092590228 0.13270476
-0.013632596 0.0079654753 0.13271801
-0.013885081 0.0066695288 0.13273054
-0.014114976 0.0053702965 0.13274214
-0.014368296 0.004074797 0.13275471
-0.014599085 0.0027759522 0.13276635
-0.014710963 0.0021260083 0.13277203
-0.014911115 0.00082240254 0.13278243
-0.015085578 -0.0004907921 0.13213189
-0.015260577 -0.0017986223 0.13214123
-0.015403926 -0.0031118095 0.13214923
-0.015516758 -0.0044303387 0.13215598
-0.015616775 -0.0057513714 0.13216218
-0.015702188 -0.0070753321 0.13216777
-0.015771329 -0.0084025636 0.13217269
-0.015717924 -0.0090816841 0.13217145
-0.015736818 -0.010418706 0.13217428
-0.015741408 -0.011758983 0.1321765
-0.015729189 -0.013103068 0.13217801
-0.015760005 -0.014440164 0.13218133
-0.015654564 -0.015802965 0.13217895
-0.015864074 -0.017108485 0.13218972
-0.015584826 -0.018505663 0.13218009
-0.015625775 -0.019844055 0.13218383
-0.015447497 -0.021225005 0.13217843
-0.015466511 -0.022569329 0.13218124
-0.014879465 -0.02335763 0.13215774
-0.014599085 -0.024762914 0.13214807
-0.014603078 -0.026113749 0.13215028
-0.014292181 -0.027528346 0.13213935
-0.013963878 -0.028948456 0.13212767
-0.0096008182 0.024725698 0.1312018
-0.009911716 0.023433365 0.13121694
-0.010118604 0.022793896 0.13122672
-0.010480762 0.021508895 0.13124403
-0.010773122 0.02021531 0.13125837
-0.011121273 0.018929482 0.13127507
-0.011345804 0.017627515 0.1312865
-0.011625171 0.016333111 0.13130029
-0.011961818 0.015046939 0.1313165
-0.012185991 0.013745457 0.13132793
-0.012432814 0.013113812 0.13133939
-0.012781978 0.01183062 0.13135616
-0.013100147 0.010543466 0.13137159
-0.013390303 0.0092526153 0.13138582
-0.01365608 0.0079584494 0.13139902
-0.013903379 0.0066617131 0.13141142
-0.014132142 0.0053623021 0.13142301
-0.014381826 0.0040662289 0.13143551
-0.01461184 0.002767235 0.13144718
-0.014715374 0.0021159574 0.13145252
-0.014915526 0.00081231445 0.1314629
-0.015089273 -0.00049561262 0.13147216
-0.015250266 -0.0018057525 0.13148086
-0.015391111 -0.0031193867 0.13148871
-0.015520751 -0.0044351518 0.13149607
-0.01561898 -0.0057565197 0.13150209
-0.015702665 -0.0070807934 0.13150752
-0.015770137 -0.0084083304 0.13151222
-0.015727043 -0.0090912506 0.1308507
-0.015745223 -0.010428429 0.13085315
-0.015747845 -0.011769094 0.1308549
-0.01560837 -0.013136104 0.13085043
-0.015622079 -0.014476582 0.13085267
-0.015658915 -0.015813559 0.13085593
-0.015708745 -0.017148778 0.13085975
-0.015584826 -0.018517166 0.13085598
-0.015625358 -0.019855678 0.13085939
-0.015444994 -0.021237105 0.13085315
-0.015362084 -0.021926984 0.13085034
-0.015141964 -0.023318335 0.13084239
-0.014600217 -0.024774447 0.13082036
-0.014296353 -0.026186317 0.13080877
-0.013972044 -0.027604252 0.13079625
-0.013971865 -0.028958768 0.13079789
-0.0096672773 0.024724044 0.12988214
-0.0098680258 0.024083547 0.12989183
-0.0101735 0.022790894 0.12990691
-0.010527611 0.021504894 0.12992416
-0.010877967 0.020218968 0.12994125
-0.011157334 0.018924139 0.12995517
-0.011380255 0.017621964 0.12996656
-0.011710763 0.016334586 0.12998277
-0.011988819 0.015040413 0.1299966
-0.012263477 0.013746023 0.13001031
-0.012460768 0.013107426 0.13001984
-0.01280421 0.011823423 0.13003662
-0.013116241 0.010535367 0.13005199
-0.013400495 0.0092436373 0.13006613
-0.013660789 0.0079486221 0.13007918
-0.013906181 0.006651558 0.13009158
-0.014132321 0.0053517073 0.1301031
-0.014381766 0.0040555522 0.13011569
-0.014601827 0.002754949 0.13012694
-0.014714777 0.0021051243 0.1301327
-0.014916897 0.00080175698 0.13014317
-0.015092134 -0.00050598383 0.13015242
-0.01525259 -0.0018162429 0.13016103
-0.015393615 -0.003129907 0.13016877
-0.015523612 -0.0044456497 0.13017599
-0.015621245 -0.0057671666 0.13018179
-0.01570487 -0.007091485 0.13018698
-0.015770733 -0.0084193498 0.13019134
-0.015714526 -0.0090989992 0.13018955
-0.015732288 -0.010436311 0.1301918
-0.015632629 -0.011795223 0.13018878
-0.015591502 -0.013144776 0.13018839
-0.015605927 -0.014485195 0.13019048
-0.015642107 -0.015822351 0.13019355
-0.015690804 -0.017157838 0.13019715
-0.015577674 -0.018530011 0.12953141
-0.015408695 -0.019908294 0.12952498
-0.015435517 -0.021250531 0.12952745
-0.015351951 -0.021940574 0.12952426
-0.015133202 -0.023331746 0.12951556
-0.014596522 -0.024786919 0.12949236
-0.014296412 -0.026198119 0.12947994
-0.013976455 -0.027615234 0.12946662
-0.0096963048 0.024717711 0.12856089
-0.0098958611 0.024077073 0.12857069
-0.010263026 0.022792287 0.12858884
-0.010550618 0.021497816 0.12860326
-0.010902405 0.020212077 0.12862071
-0.011182785 0.018917382 0.12863481
-0.011461377 0.017622724 0.12864882
-0.011736274 0.016327851 0.12866268
-0.012016892 0.015034027 0.12867677
-0.012293994 0.013739988 0.12869072
-0.012493491 0.013101712 0.12870052
-0.012834549 0.011817381 0.12871745
-0.013142586 0.010528766 0.12873283
-0.013422847 0.0092364401 0.12874693
-0.013681233 0.0079411343 0.12876
-0.013924539 0.0066437572 0.12877238
-0.014147818 0.0053434595 0.12878382
-0.014396369 0.0040471479 0.12879643
-0.014615655 0.0027463958 0.12880768
-0.014727771 0.0020964444 0.12881343
-0.014929712 0.00079301 0.12882388
-0.015105784 -0.0005146116 0.1288331
-0.015263915 -0.0018252805 0.12884152
-0.015403032 -0.0031392723 0.12884903
-0.015534043 -0.004454881 0.12885618
-0.015628934 -0.0057768971 0.12886165
-0.015708923 -0.0071018711 0.12886643
-0.01577282 -0.0084301233 0.12887044
-0.015712917 -0.0091104358 0.12886818
-0.015730083 -0.010447904 0.12887004
-0.015729964 -0.011789158 0.12887108
-0.015584469 -0.013157353 0.12886536
-0.015599668 -0.014497697 0.12886712
-0.015635252 -0.015835017 0.12886983
-0.015682578 -0.017170817 0.12887309
-0.015553713 -0.018540278 0.12886816
-0.015589654 -0.019879788 0.12887089
-0.015618742 -0.02122128 0.1288733
-0.015326262 -0.021951333 0.12886024
-0.015110195 -0.023342058 0.12885123
-0.014582217 -0.024795622 0.12882772
-0.014288366 -0.026205614 0.12881511
-0.0093424916 0.025995195 0.12722044
-0.0097119212 0.024709724 0.12723899
-0.0099108219 0.024068989 0.12724896
-0.010274708 0.022783771 0.12726724
-0.010622084 0.021497004 0.12728474
-0.0109092 0.02020286 0.12729928
-0.011241674 0.018915072 0.12731606
-0.011466563 0.01761324 0.12732762
-0.011740863 0.016318247 0.12734157
-0.012025237 0.0150249 0.12735599
-0.01230514 0.013731234 0.12737021
-0.012507021 0.013093278 0.12738031
-0.012844443 0.011808403 0.12739731
-0.013148606 0.010519199 0.12741271
-0.01342696 0.0092265606 0.12742685
-0.013683856 0.0079310015 0.12743995
-0.013923943 0.0066330954 0.12745222
-0.014146507 0.0053326339 0.12746367
-0.014394879 0.0040362477 0.12747635
-0.014514744 0.0033874288 0.12748249
-0.014733016 0.0020865276 0.12749372
-0.014938831 0.00078368187 0.12750435
-0.015115142 -0.00052393973 0.12751354
-0.015272915 -0.0018346906 0.12752186
-0.015414178 -0.003148362 0.12752935
-0.015546978 -0.004463695 0.12753645
-0.01564157 -0.0057857782 0.12754169
-0.015720189 -0.0071110204 0.12754616
-0.015782535 -0.0084395558 0.12754983
-0.015721083 -0.0091201663 0.1275472
-0.015737891 -0.010457724 0.12754866
-0.015736639 -0.011799224 0.12754926
-0.015588045 -0.013168022 0.12754273
-0.015599787 -0.014509022 0.12754397
-0.015634656 -0.015846536 0.12754631
-0.015678525 -0.017183021 0.12754913
-0.015545249 -0.018553361 0.12754332
-0.015580535 -0.01989308 0.12754571
-0.015606821 -0.021235168 0.12754765
-0.015314221 -0.021965295 0.12753382
-0.015328765 -0.023311287 0.12753519
-0.014577448 -0.024808303 0.12749948
-0.014583051 -0.026159048 0.12750041
-0.0093593597 0.025987364 0.12589827
-0.0097285509 0.024701849 0.12591711
-0.009927392 0.024061114 0.12592725
-0.010289729 0.022775672 0.12594578
-0.010634184 0.02148851 0.12596337
-0.01091814 0.020193934 0.12597793
-0.011250138 0.018906057 0.12599491
-0.011474133 0.017604075 0.12600645
-0.011747956 0.016308978 0.12602049
-0.012036204 0.015016139 0.12603527
-0.012319088 0.013722874 0.12604979
-0.012524247 0.013085365 0.12606025
-0.012856364 0.011799723 0.12607722
-0.013154626 0.01050964 0.12609249
-0.013428688 0.0092163235 0.12610656
-0.013681889 0.0079201758 0.12611958
-0.013917983 0.0066216066 0.12613173
-0.014137328 0.0053206012 0.12614302
-0.014384389 0.0040239468 0.12615573
-0.014503419 0.0033749714 0.12616186
-0.014721155 0.0020739064 0.12617309
-0.014925063 0.00077069551 0.12618363
-0.015101016 -0.00053705275 0.12619275
-0.015256166 -0.0018483102 0.12620082
-0.015397549 -0.0031620488 0.12620822
-0.01553148 -0.0044772774 0.12621522
-0.015626907 -0.0057992935 0.12622032
-0.01570344 -0.0071249604 0.12622443
-0.015763819 -0.0084539279 0.12622774
-0.015638232 -0.0091457441 0.12622155
-0.015639186 -0.010486305 0.12622188
-0.01561296 -0.011832491 0.12622082
-0.015567839 -0.013182968 0.12621884
-0.015582502 -0.014523521 0.12621985
-0.01561892 -0.015860841 0.12622195
-0.015662372 -0.01719749 0.12622443
-0.015531719 -0.018567413 0.12621811
-0.015567422 -0.019907132 0.1262202
-0.015594423 -0.02124916 0.12622184
-0.015512168 -0.021938846 0.12621783
-0.015527964 -0.023284286 0.1262189
-0.015104949 -0.024716556 0.12619789
-0.014865577 -0.026114866 0.12618612
-0.0094309449 0.025991201 0.12524042
-0.0097344518 0.024692647 0.12459465
-0.010003507 0.024060711 0.12460864
-0.010366321 0.022775427 0.12462746
-0.010640144 0.021479234 0.12464164
-0.010921597 0.020184293 0.12465621
-0.01120007 0.018889241 0.12467063
-0.011477351 0.017594308 0.124685
-0.011751056 0.016299166 0.12469917
-0.012043953 0.015006937 0.12471434
-0.012228251 0.014366239 0.12472391
-0.012539566 0.013077192 0.12474003
-0.012866795 0.011790827 0.12475701
-0.013161421 0.010500185 0.12477227
-0.01343298 0.0092064738 0.12478633
-0.013682902 0.0079097971 0.12479927
-0.013915062 0.0066105872 0.12481126
-0.014131367 0.0053090677 0.12482245
-0.014377415 0.0040121973 0.12483516
-0.014494419 0.0033628717 0.12484121
-0.014711976 0.0020617247 0.12485246
-0.014917552 0.00075870007 0.12486307
-0.015095353 -0.00054880232 0.12487224
-0.015250266 -0.0018601641 0.12488021
-0.015393794 -0.0031736046 0.12488759
-0.015529454 -0.0044885948 0.12489456
-0.015626431 -0.0058103949 0.12489951
-0.015701473 -0.0071363822 0.12490331
-0.015658736 -0.0078133866 0.12490101
-0.01563549 -0.0091573745 0.12489969
-0.015636981 -0.010497898 0.12489966
-0.015611231 -0.011844054 0.1248982
-0.015566409 -0.013194531 0.12489574
-0.015589118 -0.014533684 0.12489681
-0.015626907 -0.01587078 0.12489866
-0.015671134 -0.017207325 0.12490086
-0.015544772 -0.018576488 0.12489415
-0.015581965 -0.019915938 0.12489599
-0.015507638 -0.020603612 0.12489204
-0.015530646 -0.021946937 0.12489313
-0.015548468 -0.02329199 0.12489393
-0.015139282 -0.024721578 0.12487246
-0.015139699 -0.026072338 0.12487237
-0.0094481707 0.025983423 0.12391833
-0.0097392201 0.024688259 0.12393349
-0.010014355 0.024057083 0.12394795
-0.010375857 0.022771634 0.12396686
-0.010706663 0.02148281 0.12398413
-0.010924399 0.020179614 0.12399539
-0.01120013 0.018884182 0.12400973
-0.011477053 0.017589174 0.12402413
-0.011762559 0.016290508 0.12337821
-0.012059987 0.014998876 0.12339379
-0.012247682 0.01435864 0.12340369
-0.012562037 0.013070025 0.12342019
-0.012884319 0.011782944 0.12343712
-0.013176203 0.010491885 0.1234524
-0.013445377 0.0091978163 0.12346645
-0.013692081 0.0079006255 0.12347929
-0.013918936 0.006600596 0.12349106
-0.014132202 0.0052985623 0.1235021
-0.014375865 0.0040012822 0.12351477
-0.014490724 0.003351599 0.12352073
-0.0147084 0.0020504147 0.123532
-0.01491189 0.00074701011 0.12354252
-0.015090048 -0.00056050718 0.12355164
-0.015241504 -0.0018724799 0.12355933
-0.015387058 -0.0031856522 0.1235667
-0.015524209 -0.0045004562 0.12357362
-0.015592575 -0.0058271661 0.1235768
-0.015697718 -0.0071481094 0.12358199
-0.015652955 -0.0078254789 0.12357932
-0.015627861 -0.0091698691 0.12357746
-0.0157094 -0.010496356 0.12358137
-0.015604794 -0.011856459 0.12357521
-0.015559971 -0.013206989 0.12357228
-0.015589833 -0.014544919 0.12357339
-0.015628755 -0.015881851 0.12357499
-0.015672028 -0.01721862 0.12357682
-0.015550911 -0.018586844 0.12356977
-0.015589654 -0.019926041 0.12357137
-0.015516996 -0.020613402 0.12356718
-0.015542269 -0.021956339 0.12356804
-0.01537174 -0.02333802 0.12355831
-0.015378654 -0.024686337 0.12355818
-0.015177429 -0.026076674 0.12354678
-0.0094306469 0.025971368 0.12259431
-0.0097224712 0.024676234 0.12260967
-0.01000452 0.024045877 0.12262484
-0.010366321 0.022760414 0.12264405
-0.010696292 0.021471418 0.12266152
-0.010910571 0.020167701 0.1226726
-0.011187017 0.018872291 0.12268712
-0.011404693 0.017569207 0.1226984
-0.011739016 0.016282164 0.1227161
-0.012042344 0.014991283 0.1227321
-0.012192667 0.014345802 0.12274002
-0.012553394 0.013063617 0.12275916
-0.012873471 0.011776194 0.12277608
-0.013163865 0.010484874 0.12279136
-0.013430655 0.0091904029 0.12280535
-0.013687849 0.0078894645 0.12215853
-0.013912439 0.0065890402 0.1221702
-0.014125526 0.0052869171 0.12218124
-0.014369309 0.0039895847 0.12219399
-0.014485776 0.0033401325 0.12220007
-0.014705479 0.0020392016 0.12221148
-0.014907002 0.00073543936 0.12222187
-0.01508373 -0.00057236105 0.12223087
-0.01523298 -0.0018847734 0.12223834
-0.015378714 -0.003197968 0.1222456
-0.015515506 -0.0045128912 0.12225237
-0.015584171 -0.0058396235 0.12225533
-0.015687823 -0.0071608797 0.12226023
-0.01564163 -0.0078385398 0.1222572
-0.01561445 -0.0091833547 0.12225479
-0.015617013 -0.010523833 0.12225404
-0.015593827 -0.011869676 0.12225185
-0.0155496 -0.013220161 0.12224849
-0.015444994 -0.014582619 0.12224173
-0.015625238 -0.015893906 0.12225092
-0.015518665 -0.017258555 0.12224406
-0.015556574 -0.018597305 0.12224529
-0.015597403 -0.019936144 0.12224668
-0.015527248 -0.020623058 0.1222423
-0.015555561 -0.021965429 0.12224299
-0.015400946 -0.02334404 0.12223344
-0.015412033 -0.024691537 0.12223315
-0.015232682 -0.026077524 0.12222221
-0.0093951821 0.025957115 0.12126912
-0.0096858144 0.024661712 0.12128457
-0.0099702477 0.024031609 0.12130021
-0.010333419 0.022746205 0.12131979
-0.010602057 0.021449164 0.12133399
-0.010879934 0.020153567 0.12134872
-0.011158049 0.018858276 0.12136347
-0.011375487 0.017555073 0.12137476
-0.011654854 0.016260393 0.12138957
-0.011974275 0.014971554 0.12140667
-0.012179852 0.014333703 0.12141781
-0.012545586 0.013052166 0.12143755
-0.012864292 0.011764474 0.1214546
-0.013154089 0.010473013 0.12147
-0.01342231 0.0091786832 0.12148419
-0.013667762 0.0078812018 0.12149708
-0.01389122 0.0065805316 0.12150871
-0.014105022 0.0052784681 0.1215198
-0.014349818 0.0039812252 0.12153265
-0.014468968 0.0033321604 0.12153888
-0.014691532 0.0020316318 0.12155047
-0.014891624 0.00072758645 0.12156077
-0.015069246 -0.00058011711 0.1215698
-0.015230358 -0.0018960908 0.12091756
-0.015377402 -0.0032091215 0.12092479
-0.01551199 -0.0045244694 0.1209313
-0.015577734 -0.0058517456 0.12093382
-0.015636265 -0.0071807951 0.12093592
-0.015575886 -0.0078609735 0.1209318
-0.015600562 -0.0091969371 0.12093194
-0.015603542 -0.010537408 0.12093083
-0.015581429 -0.01188314 0.12092827
-0.0155375 -0.013233662 0.12092444
-0.015577614 -0.014569864 0.12092549
-0.01561904 -0.015906453 0.1209266
-0.015517533 -0.017270222 0.12091944
-0.015556693 -0.018608794 0.12092041
-0.015599072 -0.019947395 0.12092158
-0.015530825 -0.020633966 0.12091698
-0.015394151 -0.022008136 0.12090778
-0.01542151 -0.023351744 0.12090808
-0.015435994 -0.024698585 0.12090763
-0.015277386 -0.026080459 0.12089715
-0.0093306303 0.025939286 0.11994199
-0.0095219016 0.02529715 0.11995248
-0.0099166632 0.024014905 0.11997423
-0.010285616 0.022730097 0.11999444
-0.010556638 0.021433227 0.1200089
-0.010837078 0.020137839 0.12002391
-0.011118054 0.018842801 0.12003896
-0.011334121 0.017539285 0.12005019
-0.011616588 0.016244903 0.12006533
-0.011945546 0.014957264 0.1200832
-0.012159228 0.014320515 0.12009502
-0.012531698 0.013039842 0.12011544
-0.012851655 0.011752255 0.12013279
-0.013141453 0.010460727 0.12014835
-0.013411999 0.0091666728 0.12016279
-0.013660491 0.0078695789 0.12017593
-0.013885081 0.0065690205 0.12018766
-0.014100254 0.005267106 0.12019885
-0.014346719 0.0039700642 0.12021187
-0.014469087 0.0033214763 0.12021832
-0.014695048 0.0020214468 0.12023015
-0.014894068 0.00071717799 0.12024038
-0.015073061 -0.00059034675 0.12024942
-0.015221894 -0.0019029081 0.12025671
-0.015369177 -0.0032159537 0.12026389
-0.01550132 -0.0045317486 0.12027019
-0.015564263 -0.0058595464 0.12027243
-0.015621305 -0.0071889013 0.12027431
-0.015557826 -0.0078696311 0.12026983
-0.01558274 -0.0092056245 0.12026982
-0.015598536 -0.010549501 0.11960799
-0.015577734 -0.011895053 0.11960508
-0.015534103 -0.013245583 0.11960079
-0.015578687 -0.014581025 0.11960179
-0.015625536 -0.015916675 0.11960291
-0.015531838 -0.017279044 0.11959563
-0.015572071 -0.018617421 0.11959636
-0.015617013 -0.019955561 0.11959736
-0.015551925 -0.020641536 0.11959264
-0.015434444 -0.022012025 0.11958393
-0.015466392 -0.023354724 0.11958417
-0.015485942 -0.024700522 0.11958365
-0.015355885 -0.026076704 0.11957419
-0.0092543364 0.025920011 0.11861381
-0.0094466209 0.025277898 0.11862455
-0.009939909 0.024007864 0.11865261
-0.010223925 0.022712216 0.11866798
-0.010498166 0.021415599 0.11868276
-0.010781825 0.020120479 0.1186981
-0.011066318 0.018825762 0.1187135
-0.011281192 0.01752194 0.11872468
-0.011635065 0.016237192 0.11874429
-0.011904955 0.014941342 0.11875881
-0.012125909 0.014305547 0.11877128
-0.012467325 0.013020359 0.11879014
-0.012824237 0.01173792 0.11880994
-0.013112903 0.010446124 0.1188256
-0.013362467 0.0091488808 0.11883888
-0.013636589 0.00785546 0.11885366
-0.01386565 0.0065555051 0.1188657
-0.01408416 0.0052540079 0.1188771
-0.014333963 0.0039574206 0.1188904
-0.014460027 0.0033093616 0.11889713
-0.014689863 0.0020098835 0.11890922
-0.014886558 0.00070518255 0.11891928
-0.015069246 -0.00060180575 0.11892852
-0.015218973 -0.0019142777 0.11893575
-0.0153687 -0.0032269582 0.11894298
-0.015499294 -0.0045430735 0.11894904
-0.015595853 -0.0058652312 0.11895303
-0.015664041 -0.0071926638 0.11895531
-0.015556633 -0.0078809559 0.11894786
-0.01565069 -0.009204939 0.11895171
-0.015589595 -0.010556683 0.11894614
-0.01557225 -0.011901662 0.11894321
-0.015531123 -0.013251781 0.11893885
-0.015580952 -0.0145863 0.11894
-0.015634358 -0.015920758 0.11894137
-0.015550673 -0.017281279 0.11893442
-0.015593708 -0.01861912 0.11893516
-0.015510798 -0.019987255 0.11826547
-0.015451193 -0.020672321 0.11826076
-0.015493214 -0.022012353 0.11826128
-0.015530407 -0.023353979 0.1182615
-0.015555739 -0.02469857 0.11826099
-0.015456259 -0.026068613 0.11825278
-0.0088572502 0.027193345 0.11726744
-0.0091704726 0.025899798 0.11728477
-0.009465456 0.025270306 0.1173021
-0.0098776817 0.023990072 0.11732563
-0.010165155 0.022694699 0.11734137
-0.01044333 0.02139844 0.11735652
-0.010730803 0.020103671 0.11737225
-0.011019349 0.018809348 0.11738805
-0.011233151 0.017505251 0.11739919
-0.011523485 0.016211659 0.1174151
-0.011869907 0.014926188 0.11743452
-0.012099206 0.014291495 0.11744773
-0.012446761 0.013007089 0.11746723
-0.012777269 0.011720777 0.11748566
-0.013098776 0.010433622 0.11750354
-0.013349414 0.0091364682 0.11751698
-0.013628483 0.0078437179 0.11753218
-0.01384145 0.0065412521 0.11754327
-0.014083266 0.0052432418 0.11755615
-0.01423341 0.0045987889 0.11756442
-0.01446259 0.0032990649 0.11757652
-0.014694631 0.0019998848 0.11758879
-0.014888167 0.00069465488 0.11759865
-0.015072346 -0.0006121397 0.11760794
-0.015222669 -0.0019245669 0.11761509
-0.015372992 -0.0032371953 0.11762224
-0.015503585 -0.0045533329 0.11762818
-0.015600443 -0.0058754832 0.11763199
-0.015623331 -0.0072107166 0.11763117
-0.015561521 -0.0078912228 0.11762618
-0.015589178 -0.0092268214 0.11762565
-0.015598416 -0.010566346 0.11762397
-0.015583038 -0.011911005 0.11762075
-0.015543699 -0.013260826 0.11761603
-0.015598059 -0.014594555 0.11761717
-0.015656531 -0.015928105 0.11761858
-0.0155828 -0.017286777 0.1176117
-0.015628994 -0.018624023 0.11761233
-0.015550017 -0.019985601 0.11760512
-0.015495002 -0.020669773 0.11760055
-0.015542209 -0.022008762 0.11760123
-0.015584469 -0.023349315 0.1176016
-0.015504241 -0.024714544 0.11759432
-0.015547872 -0.026056334 0.11759478
-0.0083912611 0.028459296 0.11591582
-0.0086921453 0.027163513 0.11593257
-0.0091291666 0.025884822 0.11595808
-0.0093280673 0.025243379 0.11596958
-0.0097450018 0.023963429 0.1159938
-0.010038614 0.02266854 0.11601007
-0.010323524 0.021372862 0.1160258
-0.01070255 0.02008985 0.11604758
-0.010993302 0.018795721 0.11606368
-0.011208057 0.017491654 0.11607489
-0.011500478 0.016198263 0.1160911
-0.011851609 0.01491335 0.11611108
-0.012084663 0.014279149 0.11612479
-0.012434065 0.012994938 0.11614467
-0.012795091 0.011712939 0.11616531
-0.013085246 0.010421209 0.11618137
-0.013334692 0.0091237947 0.11619481
-0.013619721 0.0078318715 0.11621055
-0.013858497 0.0065332502 0.11622331
-0.014084458 0.0052327886 0.11623524
-0.01423806 0.0045888498 0.11624382
-0.014467597 0.0032891482 0.11625598
-0.014699757 0.0019899458 0.11626831
-0.014893413 0.00068469346 0.11627816
-0.015078783 -0.00062194467 0.11628747
-0.015229523 -0.0019343346 0.11629456
-0.015380383 -0.0032469109 0.11630166
-0.015511036 -0.0045630708 0.11630744
-0.015608132 -0.0058852136 0.11631106
-0.015528917 -0.0065682158 0.11630462
-0.01557076 -0.0079007447 0.11630469
-0.015600026 -0.0092360973 0.11630393
-0.015610337 -0.010575451 0.11630195
-0.015597165 -0.011919752 0.11629845
-0.015559852 -0.013269231 0.1162934
-0.015505254 -0.014622808 0.11628722
-0.01556468 -0.015956402 0.11628842
-0.015613616 -0.017292514 0.11628892
-0.015662372 -0.018629268 0.11628941
-0.015493095 -0.019334406 0.11627716
-0.015544832 -0.020671874 0.11627784
-0.015596092 -0.022010028 0.11627848
-0.015643954 -0.023349434 0.11627892
-0.015584826 -0.024710476 0.11627244
-0.015634656 -0.026050925 0.116273
-0.008202672 0.028427012 0.11457852
-0.008636415 0.027146906 0.11460424
-0.009077847 0.02586861 0.11463047
-0.0092796087 0.025227442 0.11464234
-0.0097001791 0.02394782 0.11466721
-0.0099961758 0.02265311 0.1146838
-0.010283947 0.021357678 0.11469986
-0.010666609 0.020075023 0.11472221
-0.010960281 0.01878117 0.11473866
-0.011176527 0.017477192 0.11474998
-0.01147157 0.016184054 0.11476653
-0.01182729 0.014899686 0.1147871
-0.012064278 0.014265984 0.1148013
-0.012415409 0.012981929 0.11482157
-0.012776852 0.011699907 0.11484252
-0.013037801 0.010403857 0.11485682
-0.013316691 0.0091106445 0.11487228
-0.013608277 0.0078196228 0.11488861
-0.01385361 0.0065219253 0.11490186
-0.014083862 0.0052220672 0.11491412
-0.014243007 0.0045789555 0.11492316
-0.014474273 0.0032794923 0.11493549
-0.014706373 0.0019802451 0.11494786
-0.014898121 0.00067465007 0.11495757
-0.015086055 -0.00063161552 0.114967
-0.015237212 -0.0019439608 0.11497401
-0.015388489 -0.0032564998 0.11498103
-0.015519321 -0.0045726746 0.11498669
-0.015616536 -0.0058948249 0.11499012
-0.015582025 -0.0065702274 0.11498631
-0.01557821 -0.0079105794 0.11498302
-0.015675724 -0.0092340633 0.11498646
-0.015698433 -0.010571152 0.11498494
-0.015701592 -0.011912428 0.11498211
-0.015573323 -0.013278127 0.11497056
-0.015633047 -0.014610916 0.11497148
-0.01569432 -0.015943989 0.11497252
-0.015633881 -0.017300218 0.11496545
-0.015684247 -0.018636689 0.11496576
-0.015522838 -0.019340336 0.11495352
-0.01557672 -0.020677388 0.11495405
-0.015630424 -0.022015065 0.11495457
-0.015682459 -0.023353651 0.11495498
-0.01563704 -0.024711967 0.11494891
-0.015692592 -0.026051238 0.11494954
-0.015656471 -0.027409449 0.11494409
-0.0081421733 0.028414898 0.11391182
-0.0085768104 0.027134769 0.11393782
-0.0089060664 0.02584254 0.11395674
-0.0092259645 0.025215834 0.11397664
-0.0096611381 0.023932934 0.11334072
-0.0099594593 0.022638403 0.11335766
-0.010250092 0.021343224 0.11337407
-0.010634959 0.020060755 0.1133969
-0.010931492 0.018767178 0.11341371
-0.011152029 0.017463684 0.11342534
-0.011451185 0.016171016 0.11344235
-0.011708379 0.015539661 0.11345817
-0.012102425 0.014261007 0.11348163
-0.012402415 0.012969732 0.11349869
-0.01276648 0.011688016 0.11352012
-0.013025999 0.01039169 0.11353441
-0.013307512 0.0090988055 0.1135502
-0.013583243 0.00780534 0.1135656
-0.013860583 0.006512396 0.11358112
-0.014096975 0.0052134395 0.11359384
-0.014260232 0.0045709535 0.11360327
-0.014493227 0.0032717437 0.11361576
-0.014724672 0.0019723848 0.11362814
-0.014914393 0.00066645443 0.11363767
-0.015104592 -0.00063946098 0.11364724
-0.015257716 -0.0019515008 0.11365429
-0.015409231 -0.00326401 0.11366121
-0.015539944 -0.0045802072 0.11366672
-0.01563859 -0.0059021339 0.11367004
-0.015605271 -0.0065773278 0.11366606
-0.015655935 -0.0079082921 0.11366609
-0.015696883 -0.0092415363 0.11366546
-0.015719652 -0.010578625 0.1136636
-0.015631557 -0.011936158 0.11365416
-0.015596032 -0.013285354 0.1136483
-0.015655518 -0.014618188 0.11364894
-0.01560992 -0.015970916 0.11364239
-0.01566118 -0.017306611 0.11364247
-0.015713096 -0.018642783 0.11364257
-0.015556574 -0.019345522 0.11363016
-0.015612066 -0.020682245 0.11363052
-0.015667498 -0.022019565 0.11363086
-0.015723109 -0.023357436 0.11363123
-0.015686452 -0.024714008 0.11362527
-0.015746415 -0.026052371 0.11362593
-0.0081009269 0.02840016 0.11258355
-0.0084160566 0.027105443 0.11260173
-0.0088707209 0.025828287 0.11262953
-0.0091921687 0.025201723 0.11264995
-0.0095214844 0.023910396 0.1126691
-0.0098261237 0.022616379 0.11268656
-0.010211229 0.021333158 0.11270957
-0.010597825 0.020050816 0.11273269
-0.01089704 0.018757507 0.11274978
-0.011122227 0.017454557 0.11276175
-0.011501729 0.016172811 0.11278437
-0.011700034 0.015528247 0.11213495
-0.012099445 0.014250278 0.11215914
-0.012398481 0.01295881 0.11217631
-0.012765586 0.011677481 0.11219823
-0.013025045 0.010381095 0.11221263
-0.01330936 0.0090885758 0.11222877
-0.013592839 0.0077962279 0.11224484
-0.013878047 0.0065044537 0.11226104
-0.014120638 0.0052064285 0.11227424
-0.014288068 0.0045645908 0.11228409
-0.014524341 0.0032659024 0.11229686
-0.01475662 0.0019666851 0.11230935
-0.014945984 0.00066071004 0.11231884
-0.015136898 -0.00064507872 0.11232843
-0.01529038 -0.001957044 0.11233538
-0.015441895 -0.0032695383 0.11234221
-0.015572369 -0.0045857653 0.11234756
-0.015672088 -0.0059074908 0.11235076
-0.015639961 -0.0065824762 0.11234659
-0.015688479 -0.0079137906 0.1123462
-0.015727639 -0.0092473403 0.11234513
-0.015747249 -0.01058498 0.1123427
-0.015750349 -0.011926264 0.11233909
-0.01562196 -0.013292 0.11232626
-0.015676498 -0.014625743 0.11232628
-0.015630126 -0.015978619 0.11231921
-0.015681684 -0.01731427 0.11231901
-0.015734017 -0.018650368 0.11231885
-0.015578032 -0.019353017 0.11230598
-0.015633821 -0.020689696 0.11230607
-0.015689552 -0.022026971 0.11230616
-0.015745699 -0.023364738 0.11230627
-0.015711129 -0.024720922 0.11229999
-0.015772343 -0.026059017 0.11230047
-0.0080536008 0.028384693 0.1112546
-0.008492589 0.02710484 0.11128177
-0.0088321567 0.025813632 0.11130188
-0.0091569424 0.025187425 0.11132293
-0.0094900727 0.023896463 0.11134259
-0.009888947 0.022614367 0.11136691
-0.010186136 0.021319844 0.11138403
-0.010575593 0.020037785 0.1114077
-0.010877788 0.018744789 0.11142516
-0.011105895 0.017442144 0.11143737
-0.011488378 0.016160741 0.11146055
-0.011677384 0.015519984 0.11147197
-0.012081504 0.014242612 0.11149669
-0.012380898 0.012951136 0.11151396
-0.012750268 0.011670083 0.1115362
-0.013011456 0.01037389 0.11155077
-0.013299465 0.0090818703 0.11156724
-0.013588607 0.0077903271 0.1115838
-0.01385504 0.0064956695 0.11159873
-0.014140129 0.0051987916 0.11095437
-0.014311492 0.0045575574 0.11096461
-0.014550686 0.0032593012 0.11097765
-0.014783204 0.001960136 0.11099021
-0.01497215 0.00065410137 0.11099963
-0.015163541 -0.00065160543 0.11100923
-0.015317559 -0.0019634888 0.11101612
-0.015491247 -0.003272295 0.11102445
-0.015599728 -0.0045921728 0.11102808
-0.015700996 -0.0059136301 0.11103117
-0.015670598 -0.0065883249 0.1110269
-0.015718997 -0.0079196468 0.11102618
-0.015758216 -0.0092531815 0.11102481
-0.015776277 -0.010591067 0.11102191
-0.015684664 -0.011949234 0.1110111
-0.015648007 -0.013298631 0.11100425
-0.015588701 -0.014653087 0.11099575
-0.015648961 -0.015986577 0.1109959
-0.015700579 -0.017322242 0.1109954
-0.01575309 -0.01865831 0.11099498
-0.015596032 -0.019361168 0.11098154
-0.015651524 -0.020697922 0.11098132
-0.015706897 -0.022035286 0.11098109
-0.015763223 -0.023373038 0.11098093
-0.015812457 -0.024712756 0.11098026
-0.015790045 -0.026067317 0.1109744
-0.0080048442 0.028369062 0.10992527
-0.0084465742 0.027089402 0.10995308
-0.0087925792 0.025798857 0.10997391
-0.0091204047 0.025172964 0.10999559
-0.0094578862 0.023882434 0.11001581
-0.0098591447 0.022600546 0.11004066
-0.010160565 0.021306463 0.11005826
-0.010468006 0.020013526 0.11007629
-0.010776639 0.018721141 0.11009441
-0.011011481 0.017419167 0.11010715
-0.011322677 0.016127773 0.11012547
-0.01160723 0.015500024 0.11014402
-0.012021959 0.014223963 0.11016988
-0.012372553 0.012939595 0.11019106
-0.012743592 0.011658713 0.11021373
-0.013005376 0.010362551 0.11022845
-0.013296664 0.0090709627 0.11024532
-0.013593793 0.0077805668 0.11026261
-0.013893604 0.0064909235 0.1102801
-0.014144838 0.0051941872 0.11029405
-0.01431787 0.0045532137 0.11030448
-0.014559269 0.0032552928 0.11031772
-0.014789641 0.0019557774 0.11033013
-0.014977515 0.00064956397 0.11033948
-0.015168846 -0.00065616518 0.11034904
-0.015323162 -0.0019680113 0.11035593
-0.015487134 -0.0032839254 0.10970283
-0.015617669 -0.0046001524 0.10970789
-0.015720546 -0.0059213564 0.10971092
-0.015690744 -0.0065959543 0.10970642
-0.015739202 -0.0079272762 0.10970543
-0.01577878 -0.0092607588 0.10970376
-0.0157969 -0.01059866 0.10970052
-0.015705407 -0.011956796 0.10968916
-0.015668929 -0.013306186 0.10968185
-0.015711904 -0.014642045 0.10968044
-0.015663743 -0.015995279 0.10967228
-0.01571542 -0.017330945 0.10967149
-0.015665054 -0.018013239 0.10966545
-0.015608907 -0.019370288 0.10965669
-0.01566416 -0.020707101 0.10965618
-0.015720844 -0.022044241 0.10965575
-0.015777588 -0.023381948 0.10965534
-0.015829206 -0.02472122 0.10965455
-0.015806079 -0.026075929 0.10964821
-0.0079641938 0.028354391 0.10859627
-0.0084095597 0.027075052 0.10862479
-0.008764863 0.025785536 0.10864657
-0.0090964437 0.025160059 0.10866897
-0.0094382167 0.023869976 0.10868976
-0.009753108 0.02257698 0.10870853
-0.01006192 0.021283619 0.10872684
-0.010458469 0.020002156 0.10875173
-0.010769904 0.018710084 0.10877025
-0.011007547 0.017408423 0.10878326
-0.011321068 0.016117297 0.10880195
-0.011607707 0.015489817 0.10882099
-0.012025774 0.01421418 0.10884748
-0.012375116 0.012929596 0.10886885
-0.01270777 0.011643164 0.10888897
-0.013009608 0.010352723 0.10890679
-0.013338029 0.0090665668 0.10892659
-0.013638437 0.0077766925 0.1089443
-0.013915062 0.0064835772 0.10896024
-0.014067352 0.0058392584 0.10896926
-0.014342666 0.0045463741 0.10898508
-0.014585614 0.0032487065 0.1089985
-0.014814854 0.0019490123 0.10901089
-0.014999926 0.00064235181 0.10901997
-0.015192688 -0.00066315383 0.10902964
-0.015350461 -0.0019744337 0.10903667
-0.015524924 -0.0032831281 0.10904496
-0.015634835 -0.0046027675 0.10904841
-0.01563704 -0.0052716061 0.10904619
-0.015712798 -0.0065977201 0.10904709
-0.01576221 -0.0079288706 0.109046
-0.015801668 -0.0092623457 0.10904418
-0.015820324 -0.010600135 0.1090408
-0.015739202 -0.011962049 0.10836817
-0.015702844 -0.013311386 0.10836044
-0.015739202 -0.014648423 0.10835821
-0.015799522 -0.015981719 0.10835779
-0.015741229 -0.01733762 0.10834836
-0.015690804 -0.018019915 0.10834204
-0.015629351 -0.019377977 0.10833238
-0.015683711 -0.020714983 0.1083315
-0.01574105 -0.022052005 0.10833085
-0.015797555 -0.023389757 0.10833013
-0.015848875 -0.024729103 0.10832902
-0.015820026 -0.02608496 0.10832182
-0.0078214407 0.028327547 0.10725921
-0.0082827806 0.027049832 0.1072894
-0.0086571574 0.026428856 0.1073155
-0.0089916587 0.025137141 0.10733598
-0.0094425082 0.023860544 0.10736537
-0.0097604394 0.022567898 0.10738458
-0.01007247 0.021274909 0.10740334
-0.010388017 0.019982785 0.10742237
-0.010784924 0.018701926 0.10744764
-0.011023819 0.017400421 0.1074608
-0.011338651 0.016109452 0.10747978
-0.011626005 0.015482068 0.10749923
-0.012044847 0.014206529 0.1075262
-0.012391806 0.012921602 0.10754764
-0.012724102 0.011635102 0.10756797
-0.01302588 0.010344632 0.10758597
-0.013356149 0.0090587363 0.10760614
-0.013659835 0.0077693537 0.10762429
-0.013941646 0.0064770132 0.10764076
-0.014097214 0.0058331937 0.1076501
-0.014374852 0.0045406818 0.10766625
-0.014617503 0.0032429844 0.10767972
-0.014843762 0.0019428283 0.10769192
-0.015026271 0.00063575804 0.10770077
-0.015220702 -0.00066947192 0.10771053
-0.015379131 -0.0019806325 0.10771754
-0.015553772 -0.0032892898 0.10772577
-0.015692055 -0.0046041682 0.10773122
-0.015702307 -0.0052716285 0.10772943
-0.015748382 -0.0066027194 0.1077278
-0.015798867 -0.0079336688 0.10772651
-0.015839398 -0.0092669353 0.10772446
-0.015858591 -0.010604605 0.10772076
-0.015764654 -0.011963144 0.10770836
-0.015838087 -0.013292685 0.10770882
-0.01575774 -0.014650747 0.10769746
-0.015818119 -0.015983999 0.10769691
-0.015867829 -0.017319828 0.10769555
-0.015707552 -0.018022537 0.10768063
-0.015754461 -0.01936014 0.10767904
-0.015705049 -0.020722508 0.10700695
-0.015863955 -0.02203998 0.10701393
-0.015816808 -0.023397714 0.10700485
-0.015868247 -0.024737045 0.10700345
-0.015834689 -0.026093856 0.10699543
-0.0078074336 0.028316043 0.10593162
-0.0082767606 0.027039222 0.1059629
-0.0086596608 0.026419267 0.10599019
-0.0089992285 0.025128134 0.1060113
-0.0094539523 0.023851998 0.10604145
-0.0097748637 0.02255971 0.10606112
-0.010089934 0.021267094 0.10608032
-0.010407448 0.019975223 0.10609971
-0.010806143 0.018694595 0.10612548
-0.011046052 0.017393224 0.10613879
-0.011361897 0.016102389 0.10615805
-0.011649132 0.01547499 0.10617784
-0.012120545 0.014206804 0.10620932
-0.012411892 0.012914084 0.10622668
-0.012741864 0.011627249 0.10624706
-0.013043106 0.010336697 0.10626519
-0.013374269 0.0090509132 0.10628568
-0.013680756 0.0077619329 0.10630421
-0.013967037 0.0064702779 0.10632119
-0.014125168 0.0058268383 0.10633084
-0.014404774 0.0045346394 0.10634728
-0.014646769 0.0032368451 0.10636076
-0.014871359 0.0019364432 0.10637287
-0.015051365 0.00062897801 0.10638148
-0.015247285 -0.00067601353 0.10639134
-0.015408158 -0.0019867718 0.10639844
-0.0155828 -0.0032954291 0.10640662
-0.015696704 -0.0046143755 0.10641003
-0.015737116 -0.0052767694 0.10641043
-0.01582998 -0.0065998733 0.10641218
-0.015841901 -0.0079373568 0.10640756
-0.015884161 -0.0092702955 0.10640533
-0.015904009 -0.010607809 0.10640134
-0.015809894 -0.011966355 0.10638835
-0.015884697 -0.013295621 0.10638867
-0.015797555 -0.01465486 0.10637625
-0.015858412 -0.015988007 0.10637546
-0.015908897 -0.017323658 0.10637385
-0.015744209 -0.018027186 0.10635809
-0.015789032 -0.019365147 0.10635604
-0.015833497 -0.020703807 0.10635395
-0.01588124 -0.022042468 0.10635211
-0.015827119 -0.023401558 0.10634226
-0.015876412 -0.024741322 0.10634053
-0.01583308 -0.026100084 0.10633153
-0.0076729655 0.02829019 0.10459421
-0.0083827376 0.02704218 0.1046453
-0.0086624026 0.026409708 0.10466482
-0.0090098977 0.025119528 0.10468683
-0.0093632936 0.023830608 0.1047093
-0.0097922087 0.022551894 0.10473786
-0.010112762 0.021259986 0.1047577
-0.010432541 0.019968398 0.10477749
-0.010832787 0.018687986 0.10480373
-0.011074007 0.017386794 0.10481721
-0.011543751 0.016117081 0.10484907
-0.011737525 0.015476927 0.10486168
-0.012147665 0.014200293 0.10488874
-0.012481511 0.012913607 0.10490967
-0.012804866 0.011625901 0.10492976
-0.013103247 0.010335006 0.10494784
-0.013396859 0.0090437531 0.10496554
-0.01370573 0.0077551156 0.10498447
-0.013994336 0.0064638183 0.10500177
-0.014152765 0.0058204308 0.10501154
-0.014433563 0.0045284256 0.10502823
-0.014674127 0.0032304153 0.10504166
-0.014896095 0.0019296035 0.1050536
-0.01507467 0.00062190741 0.10506205
-0.015269935 -0.00068318844 0.10507183
-0.015433013 -0.0019935966 0.10507903
-0.015585661 -0.0033058971 0.10508539
-0.01572156 -0.0046211928 0.10509039
-0.015733004 -0.0052884817 0.10508835
-0.015821755 -0.0066123307 0.10508955
-0.015877187 -0.007942386 0.10508807
-0.015921175 -0.0092750043 0.10508566
-0.015863001 -0.010626256 0.10507502
-0.015848875 -0.011970669 0.10506792
-0.015813649 -0.013319731 0.10505912
-0.015831649 -0.014660031 0.1050546
-0.01588887 -0.015993834 0.10505325
-0.015935302 -0.017330214 0.10505103
-0.015763819 -0.018035024 0.10503422
-0.015807331 -0.019373238 0.10503176
-0.015849888 -0.020712286 0.1050292
-0.015893579 -0.022051737 0.10502674
-0.015827715 -0.023413137 0.10501544
-0.01587224 -0.024753883 0.10501304
-0.015923262 -0.026093975 0.10501117
-0.010140717 0.021253534 0.10343549
-0.010462761 0.019962266 0.10345568
-0.010866523 0.018682323 0.10348259
-0.011109173 0.01738134 0.10349625
-0.011476099 0.016764365 0.10352328
-0.01183337 0.015479885 0.10354638
-0.01217854 0.014194295 0.10356848
-0.012509227 0.012907177 0.10358939
-0.012831509 0.011619322 0.10360961
-0.013130128 0.010328472 0.10362789
-0.013423264 0.0090371519 0.10364571
-0.013734043 0.0077488124 0.10366499
-0.014024794 0.0064578354 0.10368262
-0.014186442 0.0058149546 0.10369277
-0.014466405 0.0045228302 0.10370952
-0.014705181 0.0032245591 0.10372288
-0.014926314 0.0019236207 0.10373478
-0.015103519 0.00061571598 0.10374306
-0.015298009 -0.00068949163 0.10375276
-0.015461564 -0.0019998029 0.10375993
-0.015614092 -0.0033121184 0.10376617
-0.01575011 -0.0046273991 0.10377105
-0.015765965 -0.0052939355 0.1037692
-0.015858054 -0.0066172108 0.10377045
-0.015916765 -0.0079466775 0.10376896
-0.015900016 -0.0092898533 0.10376124
-0.015906572 -0.010629795 0.10375543
-0.0158934 -0.011974007 0.10374801
-0.015859127 -0.01332286 0.10373882
-0.015871406 -0.014664158 0.10373348
-0.015924931 -0.015998617 0.10373154
-0.015967131 -0.017335758 0.10372867
-0.015788496 -0.018041909 0.10371074
-0.015830755 -0.019380376 0.10370786
-0.015869737 -0.020720109 0.10370471
-0.015911698 -0.022059903 0.10370179
-0.015831172 -0.023424163 0.10368877
-0.015871167 -0.024765849 0.10368569
-0.015916705 -0.026107088 0.10368307
-0.010196388 0.021250673 0.10211563
-0.010518253 0.019959435 0.10213602
-0.010920167 0.018679321 0.10216315
-0.011162519 0.017378353 0.10217686
-0.011450589 0.016750656 0.10219774
-0.011876106 0.015475526 0.10222688
-0.012215316 0.014189124 0.10224873
-0.012541413 0.012901381 0.1022695
-0.012859941 0.011613004 0.10228962
-0.013156235 0.010321818 0.10230787
-0.01344651 0.0090300888 0.10232563
-0.013757288 0.0077417493 0.10234509
-0.014049768 0.0064510331 0.10236305
-0.014212728 0.0058083385 0.10237342
-0.014492571 0.0045162067 0.10239029
-0.014729381 0.0032176375 0.10240354
-0.014947951 0.0019162968 0.10241525
-0.015124023 0.0006082058 0.10242339
-0.015317917 -0.00069710612 0.10243303
-0.015485287 -0.0020068139 0.10244042
-0.015640974 -0.0033186004 0.10244684
-0.015777528 -0.0046337992 0.10245164
-0.015798509 -0.0052994639 0.10245004
-0.015897989 -0.0066214651 0.10245171
-0.015959442 -0.0079504326 0.10245016
-0.015947104 -0.0092928112 0.10244241
-0.015954196 -0.010632604 0.10243627
-0.015942216 -0.01197657 0.10242853
-0.016018748 -0.013305411 0.10242824
-0.015915334 -0.014667526 0.10241278
-0.015964925 -0.016002685 0.1024102
-0.015899777 -0.01668711 0.10240133
-0.01581496 -0.01804845 0.10238741
-0.015855789 -0.0193872 0.10238411
-0.015892923 -0.020727277 0.10238047
-0.015933037 -0.022067428 0.1023771
-0.015833795 -0.023435354 0.10236194
-0.015868247 -0.024778187 0.10235808
-0.015907168 -0.026120782 0.10235459
-0.010222614 0.021249041 0.10145561
-0.010543168 0.019957654 0.101476
-0.01094085 0.018676996 0.10150295
-0.011259437 0.017386355 0.10152317
-0.011470854 0.016748302 0.10153772
-0.01188904 0.015472174 0.10156643
-0.012223244 0.014185078 0.10158798
-0.01255852 0.012893446 0.10094833
-0.012876272 0.01160495 0.1009686
-0.013173223 0.010313839 0.10098708
-0.013462305 0.0090219155 0.10100488
-0.013773143 0.0077335685 0.10102456
-0.014065802 0.0064428672 0.10104268
-0.014249265 0.0058032945 0.10105494
-0.014524281 0.0045104474 0.10107154
-0.014742315 0.0032089502 0.10108323
-0.014956355 0.0019068718 0.10109457
-0.015146077 0.00060093403 0.10110383
-0.015339196 -0.000704512 0.10111338
-0.015490234 -0.002016902 0.10111929
-0.01564312 -0.0033291951 0.10112537
-0.01577884 -0.0046445578 0.10112998
-0.015803814 -0.0053095892 0.10112858
-0.015907824 -0.0066308454 0.10113043
-0.015971959 -0.0079593882 0.10112885
-0.015963018 -0.0093012005 0.10112096
-0.015971303 -0.0106408 0.10111456
-0.015960455 -0.011984587 0.10110649
-0.016036391 -0.013313562 0.10110591
-0.016055286 -0.014653414 0.10110041
-0.015979111 -0.016011477 0.10108671
-0.015909672 -0.016696721 0.10107712
-0.015960336 -0.018032789 0.10107435
-0.016002834 -0.019370973 0.10107088
-0.015900075 -0.020737514 0.10105485
-0.015939236 -0.022077888 0.10105108
-0.015828311 -0.023448125 0.10103434
-0.01586163 -0.024791241 0.10103005
-0.015720606 -0.026169613 0.1010107
-0.010269165 0.021245003 0.10013513
-0.010665536 0.01996363 0.10016232
-0.010980487 0.018672124 0.10018244
-0.01129657 0.017381176 0.10020266
-0.011508346 0.016743191 0.10021745
-0.011917949 0.015465885 0.1002458
-0.012246549 0.014178023 0.10026712
-0.012564719 0.012889147 0.10028753
-0.012880266 0.011600316 0.10030771
-0.013176441 0.010309085 0.10032621
-0.013464451 0.0090169832 0.100344
-0.013773382 0.0077283308 0.10036362
-0.013962865 0.0070894286 0.10037647
-0.014248312 0.0057978481 0.10039406
-0.01453352 0.0045012087 0.099750839
-0.014763653 0.0032015741 0.099763617
-0.014972508 0.0018986687 0.099774525
-0.015148997 0.00059060007 0.099782586
-0.015340388 -0.00071516633 0.099791959
-0.015507996 -0.002024889 0.099799231
-0.015641272 -0.0033404455 0.099803478
